# .PCD v0.7 - Point Cloud Data file format
VERSION 0.7
FIELDS x y z intensity
SIZE 4 4 4 4
TYPE F F F F
COUNT 1 1 1 1
WIDTH 1468
HEIGHT 1
VIEWPOINT 0 0 0 1 0 0 0
POINTS 1468
DATA ascii
0.80571979 -0.79899788 0.025354033 40
3.8406022 4.9388027 0.32897669 91
8.9178963 4.7417293 0.63367718 73
1.200123 0.079291321 0.073773399 25
1.989513 -0.73989326 0.1001012 25
0.80509299 -0.79254484 0.024453644 40
3.8192828 4.9487104 0.33307835 91
7.1940837 3.8590503 0.51505125 67
nan nan nan 0
14.048838 -5.166182 0.70066518 35
0.82230532 -0.80357569 0.024083782 40
3.8009408 4.9624429 0.33853334 91
7.1752653 3.8828888 0.51900834 67
12.816199 0.94116288 0.79048574 21
14.096071 -5.1249785 0.69683236 35
nan nan nan 0
3.7817144 4.9768114 0.34289718 91
7.1432271 3.899467 0.52199984 66
12.364842 0.95359373 0.76285708 26
14.14789 -5.0851874 0.69320887 35
nan nan nan 0
3.7602606 4.986412 0.34807348 91
7.1199846 3.9207201 0.52419698 65
12.077726 0.97599405 0.74535894 25
14.171368 -5.0350518 0.68818951 35
nan nan nan 0
3.7418127 4.9999647 0.35243344 91
7.0966029 3.9418108 0.52780402 64
12.034156 1.0168821 0.74501091 25
14.189952 -4.9831562 0.68293971 35
nan nan nan 0
3.7203753 5.0094895 0.35541898 90
7.0689692 3.9604335 0.52824497 64
11.961008 1.0548674 0.73650956 26
14.217896 -4.9345064 0.67551339 35
nan nan nan 0
3.6988425 5.0188212 0.36057547 90
7.0411329 3.9788158 0.53150386 64
11.892519 1.0906758 0.73461449 27
14.245558 -4.8856792 0.6707049 35
nan nan nan 0
3.6596477 5.0039382 0.36288273 90
7.0175915 3.9995174 0.53507745 64
11.828825 1.1285689 0.73093069 28
14.26832 -4.8351116 0.66566861 35
nan nan nan 0
3.6352315 5.0089803 0.3676995 89
6.9897466 4.0176592 0.53690022 64
11.774819 1.1669815 0.72992599 28
14.295638 -4.7860284 0.66084772 35
nan nan nan 0
3.6108644 5.0139613 0.3714202 89
6.9660969 4.038105 0.54045177 67
11.725657 1.2055241 0.72921258 28
14.318045 -4.7352405 0.65580249 36
nan nan nan 0
3.6068201 5.0472522 0.37725121 88
6.9389558 4.0547986 0.54084986 67
7.6075048 0.81032193 0.47060761 19
14.349875 -4.68749 0.64855003 36
nan nan nan 0
3.5505402 5.0071917 0.37973392 88
6.9150434 4.0748973 0.54718304 67
7.5893564 0.836532 0.47368455 19
14.400238 -4.6455994 0.65005225 36
nan nan nan 0
3.3540103 4.7669663 0.36364478 91
6.8914027 4.0950699 0.54790199 68
7.5864038 0.86436152 0.47101927 19
14.437439 -4.5964708 0.64033318 34
nan nan nan 0
3.3334403 4.7748213 0.36943179 91
6.8630977 4.1123614 0.55386138 68
7.5779824 0.89154923 0.47470671 20
5.8664603 -1.8440609 0.26096454 25
nan nan nan 0
3.2845521 4.7417269 0.36896983 63
6.8393583 4.1322799 0.55456549 68
7.5846539 0.92053038 0.47399414 20
5.882895 -1.8255618 0.25708833 25
nan nan nan 0
3.2686632 4.7523794 0.37299675 63
6.8126702 4.1470556 0.55631101 69
11.246062 1.4027644 0.70309645 29
5.8985543 -1.8089991 0.25535172 25
nan nan nan 0
3.5079758 5.1444287 0.40811551 87
6.7871351 4.1689444 0.56117606 69
11.200624 1.4427814 0.70259076 28
5.9153748 -1.7882103 0.25468668 25
nan nan nan 0
3.4888964 5.1569543 0.4135491 88
6.7589221 4.1858115 0.56289703 69
11.145668 1.4772511 0.70144838 28
5.9315486 -1.7693987 0.25293779 25
nan nan nan 0
3.4669886 5.1652632 0.41864666 88
6.7348237 4.2051167 0.5663482 69
11.095556 1.5120114 0.70060074 28
5.9620419 -1.7547243 0.25178915 24
nan nan nan 0
3.4423411 5.1693873 0.42231119 86
6.7106729 4.2243004 0.56978863 71
11.030906 1.5424403 0.69685423 28
nan nan nan 0
nan nan nan 0
3.4204175 5.1774979 0.4273873 85
6.6864705 4.2433634 0.57321852 69
10.970722 1.575042 0.69535428 28
14.668209 -4.2005005 0.6101495 35
nan nan nan 0
3.3975728 5.1861067 0.43245438 85
6.6622176 4.2623043 0.5766378 68
10.915386 1.6079509 0.69414914 28
14.70765 -4.1535287 0.60848105 35
nan nan nan 0
3.3810945 5.2024522 0.43713403 85
6.6337242 4.2784219 0.57968032 67
10.85996 1.6404757 0.69292659 28
14.766294 -4.1117129 0.6049208 35
nan nan nan 0
3.3672009 5.2228708 0.44325992 82
6.6100469 4.2958961 0.58445168 67
10.829097 1.6764327 0.69326502 28
14.791003 -4.0602374 0.60263813 35
nan nan nan 0
3.3586156 5.2517209 0.44903508 82
6.5816593 4.3118405 0.58471596 67
8.3194103 1.3191535 0.52995199 115
14.815834 -4.0087171 0.59231555 35
nan nan nan 0
3.333833 5.2553072 0.45266157 82
6.5572333 4.3302698 0.58808941 67
8.117404 1.3176404 0.51882917 24
14.84501 -3.958276 0.59021258 35
nan nan nan 0
3.3142948 5.2670865 0.45917863 83
6.5325875 4.3484631 0.59419161 67
8.0137997 1.3309873 0.51678622 19
14.878748 -3.9089177 0.59098029 35
nan nan nan 0
3.1125922 4.9869971 0.43892157 76
6.5039272 4.3638697 0.5971601 66
7.9645052 1.3528153 0.51533931 19
14.907585 -3.8581395 0.5888685 35
nan nan nan 0
3.0940905 4.9980445 0.44405147 76
6.4793696 4.381917 0.60049558 65
7.920074 1.3751531 0.5141958 19
14.941092 -3.8084364 0.58694172 35
nan nan nan 0
3.2581494 5.3064165 0.47585002 78
6.4588857 4.4026504 0.60420573 64
7.9148922 1.4041568 0.51559883 21
14.979378 -3.7597802 0.58250177 35
1.4422437 -1.1345263 0.0028824098 21
3.2385049 5.3180375 0.48019707 78
6.4342275 4.4204683 0.60752255 63
7.9245839 1.4344265 0.5179646 34
15.007707 -3.7084727 0.58036894 35
nan nan nan 0
3.2239277 5.3380442 0.48640814 77
6.4094353 4.4381032 0.61218947 63
7.9191842 1.4634454 0.51937014 54
15.045572 -3.6593702 0.57860434 35
1.5969769 -1.2369574 0.00070511299 39
3.2041214 5.3494582 0.49184993 76
6.3846869 4.4556761 0.61548328 59
7.8842597 1.486896 0.51883978 61
15.083376 -3.6100628 0.57412416 35
1.6252846 -1.2493795 -0.00071558496 40
3.1791382 5.3521504 0.49758285 75
6.3597178 4.473002 0.62148058 59
7.8588901 1.5119611 0.52173948 67
15.135316 -3.5638938 0.5783177 34
1.6219021 -1.2373487 -0.0014241885 73
3.1491609 5.3462138 0.50140417 74
6.3356667 4.489223 0.6247496 59
7.8385191 1.5378562 0.52215791 67
15.177678 -3.5152059 0.57399452 33
1.6224389 -1.2283769 -0.0024862206 82
3.0909965 5.287488 0.4992364 71
6.3123636 4.5042276 0.62800801 59
7.8332868 1.5638235 0.52355206 67
15.219185 -3.4688892 0.5723747 33
1.6307126 -1.2257093 -0.0035604697 82
3.0120392 5.200223 0.49618694 58
6.2858739 4.5235162 0.63125581 59
7.8415213 1.5982263 0.52592981 67
6.1975832 -1.3864597 0.23176235 30
1.6516528 -1.231104 -0.0050335242 61
2.9802911 5.1891704 0.50039661 54
6.2647705 4.5432739 0.63760316 59
7.8645592 1.6329669 0.5335049 67
6.2123437 -1.3658724 0.23323718 30
1.6440932 -1.2161208 -0.0057107089 61
3.0276027 5.3165731 0.51698548 69
6.2396693 4.5600615 0.64217758 59
7.8828344 1.6669222 0.53656799 67
6.2271557 -1.345221 0.23137982 29
1.6283836 -1.1952918 -0.0066985609 103
3.0618055 5.4227586 0.53059512 69
6.2186298 4.5797458 0.6458075 59
7.8915086 1.6975563 0.53897351 67
6.2320838 -1.3223968 0.23026791 25
1.6206249 -1.1804806 -0.0080485642 106
3.0465488 5.4422317 0.53688705 69
6.1935282 4.5963664 0.64901263 60
nan nan nan 0
6.2271442 -1.2975157 0.22879653 25
1.6210895 -1.1713184 -0.0090756807 109
3.0287242 5.4572225 0.54385209 69
6.1721945 4.6157112 0.65531939 62
7.9807382 1.7780573 0.55167723 63
6.2318187 -1.2746754 0.22990669 25
1.6213056 -1.1624537 -0.0097493706 111
3.0108736 5.4722328 0.54973692 68
6.1469121 4.63203 0.65984571 63
7.9886699 1.810583 0.55411667 63
6.2217908 -1.2488837 0.22825733 29
1.6214768 -1.1536018 -0.010766883 111
2.9918997 5.4875321 0.55781168 68
6.1260915 4.6499562 0.66881537 63
8.0057135 1.8453213 0.56440765 63
6.1919303 -1.2192981 0.22920214 55
1.6297787 -1.1505345 -0.010793936 105
2.976176 5.506619 0.56634837 73
6.0966721 4.6629438 0.67421424 62
8.0277462 1.8814127 0.57078111 61
6.1570702 -1.1890086 0.22884481 97
1.6423726 -1.1500016 -0.011547906 103
2.9688845 5.4931278 0.56935608 69
6.1078811 4.6715169 0.68492186 62
8.0269632 1.8812292 0.58229303 59
6.1614485 -1.1909696 0.23778963 101
1.6462762 -1.1531632 -0.0094718672 105
2.9915237 5.4868426 0.56653804 68
6.1201839 4.6471562 0.68447822 63
8.0044451 1.8450289 0.58304685 63
6.1911497 -1.2202669 0.24462172 55
1.6461302 -1.1620778 -0.0073853438 105
3.0112665 5.470686 0.56281698 68
6.146842 4.6286144 0.68402249 63
7.9823031 1.8062108 0.58520812 63
6.2202744 -1.2519678 0.25151467 29
1.6414576 -1.1686804 -0.0052752513 105
3.0290699 5.4556012 0.55801189 69
6.1680412 4.6092491 0.68043363 62
7.9792318 1.7747983 0.58306825 63
6.225389 -1.2767565 0.2530199 25
1.6410226 -1.177892 -0.0038781192 109
3.0458047 5.4409022 0.55430174 69
6.1888933 4.5895777 0.68087369 60
nan nan nan 0
6.2253399 -1.3005412 0.25876883 25
1.640748 -1.1868309 -0.0017671455 106
3.0561674 5.4127731 0.54710656 69
6.2139831 4.572979 0.67771435 60
7.8895302 1.6942494 0.57700598 67
6.2204866 -1.3233401 0.25987878 25
1.6404279 -1.1957821 -0.00070860365 103
3.0096223 5.2849989 0.53102434 69
6.2389383 4.5561872 0.67589277 59
7.8760686 1.6611836 0.57698435 67
6.2103434 -1.3461279 0.26300192 25
1.6479117 -1.2109544 0.0010707594 97
2.9869361 5.2007403 0.52049071 54
6.2589326 4.5373745 0.67497927 59
7.8575888 1.6272284 0.57659745 67
6.1954765 -1.3666989 0.26591039 29
1.6555158 -1.2259117 0.0028763015 61
3.0062044 5.1901493 0.5152567 54
6.2799454 4.5175862 0.67001361 59
7.8391609 1.5934706 0.57340944 67
15.246857 -3.422049 0.65766251 33
1.6550174 -1.2349604 0.0039645131 61
3.1057963 5.3170638 0.52465248 76
6.3046651 4.5003953 0.66952449 59
7.8301783 1.5617819 0.57373059 67
15.209523 -3.4722724 0.6647799 33
1.6422684 -1.2352924 0.0057386351 69
3.1507356 5.3488874 0.52456349 75
6.3295331 4.4832182 0.6663245 59
7.835948 1.5330915 0.57233703 67
15.172137 -3.5222938 0.6691525 33
1.6297574 -1.2352608 0.0067814635 69
3.176271 5.3515778 0.52148193 75
6.3526092 4.4680023 0.66582489 59
7.8506856 1.5089619 0.57444727 67
15.125997 -3.5644858 0.67578721 34
1.6335963 -1.2467213 0.0086079389 65
3.2004747 5.3433704 0.5175513 75
6.3788571 4.4482975 0.66396451 59
7.8810878 1.482025 0.57763875 63
15.077218 -3.6169367 0.68238521 35
1.6285721 -1.2532638 0.010401245 39
3.2202237 5.3319116 0.51320285 77
6.4076943 4.4335895 0.66116077 62
7.9108334 1.4590467 0.57803088 54
15.034625 -3.6650467 0.68376702 35
nan nan nan 0
3.2373383 5.3161216 0.50844705 78
6.4323063 4.4158444 0.6592828 63
7.9160285 1.4300244 0.57943487 34
15.001348 -3.7152369 0.69097626 35
1.4615301 -1.1422832 0.011978984 22
3.2342844 5.2716746 0.50087273 81
6.4513159 4.3974905 0.65561593 63
7.906095 1.4011728 0.57695585 20
14.969334 -3.7600367 0.69547057 35
nan nan nan 0
3.1069415 5.0227199 0.4741478 77
6.4749746 4.3805919 0.65508819 64
7.9110789 1.372169 0.57835722 20
14.935072 -3.8124545 0.70264113 35
nan nan nan 0
3.1307795 5.0200372 0.47081783 77
6.4995456 4.3625751 0.65182471 65
7.9554882 1.3498551 0.57982272 19
14.901539 -3.8621254 0.70441717 35
nan nan nan 0
3.2917774 5.2313018 0.48752511 82
6.5254912 4.3420954 0.6499185 67
8.029624 1.3292956 0.5862602 19
14.866117 -3.9166965 0.71423572 35
nan nan nan 0
3.3325176 5.2532339 0.48524171 82
6.5499625 4.3238273 0.64663559 67
8.1428518 1.3173958 0.59272355 24
14.832242 -3.9659643 0.71598727 35
nan nan nan 0
3.3546169 5.2454681 0.48128378 82
6.5741978 4.3053126 0.64608508 67
8.4480076 1.3350101 0.61607611 248
14.802781 -4.0162783 0.72331947 35
nan nan nan 0
3.3703873 5.2298169 0.47655493 82
6.6012549 4.291821 0.64319158 67
10.823134 1.6735754 0.78695339 28
14.779505 -4.0626292 0.72819883 35
nan nan nan 0
3.3879068 5.2129345 0.47183284 82
6.6269031 4.2707472 0.64262974 67
10.854288 1.6338063 0.79066098 28
14.748278 -4.1177931 0.73550475 35
nan nan nan 0
3.4062624 5.2013507 0.46749231 82
6.6497068 4.2543001 0.63930893 68
10.899118 1.6036109 0.79353482 28
14.715194 -4.1612067 0.73721409 35
nan nan nan 0
3.4254823 5.1891022 0.46315163 85
6.6781616 4.23809 0.63637841 71
10.959361 1.5714588 0.79555392 28
14.680393 -4.2095351 0.74158204 35
nan nan nan 0
3.4465077 5.1756444 0.45772544 86
6.7031031 4.2179022 0.63303375 71
11.019785 1.5369637 0.79755396 28
14.648744 -4.2641716 0.74618018 35
nan nan nan 0
3.4684107 5.1673818 0.45374775 86
6.7270675 4.1986423 0.63244653 71
11.074625 1.5032531 0.80307949 28
14.632639 -4.3177223 0.75416851 35
nan nan nan 0
3.4857042 5.1561131 0.44940284 86
6.7539458 4.1843605 0.62947905 69
11.133933 1.4737184 0.80702138 28
5.9237542 -1.7693256 0.30777529 25
nan nan nan 0
3.490669 5.122889 0.44435656 86
6.7778239 4.164854 0.6288805 69
11.198476 1.4405179 0.81329232 29
5.9122949 -1.7895317 0.31076109 25
nan nan nan 0
3.4888244 5.0762711 0.43612158 87
6.8032827 4.1429687 0.62549794 69
11.234001 1.3992689 0.81347185 29
5.8954115 -1.8102869 0.3124114 25
nan nan nan 0
3.4944561 5.0485177 0.43042266 87
6.8257957 4.1257114 0.62210476 68
7.5749965 0.91801679 0.54695541 20
5.8845558 -1.8283293 0.31323391 25
nan nan nan 0
3.3133371 4.749557 0.40190417 63
6.8537908 4.1084104 0.62187648 68
7.5731683 0.88964278 0.54925972 20
nan nan nan 0
nan nan nan 0
3.3239653 4.7242641 0.39582488 67
6.8833652 4.0886679 0.6188485 68
7.5817289 0.85980773 0.54828715 19
13.88066 -4.4298835 0.7559526 208
nan nan nan 0
3.3368092 4.7092581 0.39346847 80
6.909862 4.0734692 0.61860454 68
7.5942616 0.83573121 0.55167079 19
13.912249 -4.4935341 0.76619834 40
nan nan nan 0
3.3645861 4.7082791 0.38943875 80
6.93434 4.0521011 0.61516821 67
11.664062 1.2382932 0.84490436 27
13.904128 -4.549942 0.77182847 37
nan nan nan 0
3.4357069 4.7742543 0.39171124 94
6.9565501 4.034193 0.61312491 67
11.70794 1.2037026 0.84572405 28
13.869074 -4.5921288 0.77332467 36
nan nan nan 0
3.6144807 4.9840465 0.40461186 89
6.9845328 4.0162845 0.61004674 64
11.756937 1.1652092 0.84894925 28
13.823488 -4.6333241 0.77682811 35
nan nan nan 0
3.6700113 5.0181084 0.40312135 89
7.0095396 3.9933081 0.60657787 64
11.821245 1.1236818 0.85117704 27
13.795882 -4.6830707 0.78138161 34
nan nan nan 0
3.6956327 5.0181332 0.40082887 90
7.0315166 3.9750009 0.60591793 64
11.884206 1.0899135 0.85963279 27
13.849894 -4.7553859 0.79306573 34
nan nan nan 0
3.718888 5.0074868 0.39679533 90
7.0607438 3.9542065 0.60280281 64
11.958187 1.048309 0.86256689 25
13.891732 -4.8321762 0.80171502 37
nan nan nan 0
3.7403712 4.9980383 0.39275467 91
7.0883594 3.9356132 0.60250205 64
12.031221 1.0102899 0.87179828 25
14.184206 -4.9922647 0.83017415 35
nan nan nan 0
3.7570479 4.9857707 0.38948596 91
7.1146574 3.9194047 0.60077822 65
12.069454 0.97320539 0.87220567 25
14.162595 -5.0375032 0.83514565 35
nan nan nan 0
3.7772362 4.9709177 0.38403788 91
7.1393638 3.895741 0.59725744 65
12.406423 0.95026594 0.89627397 26
14.13259 -5.0908318 0.83983451 35
nan nan nan 0
3.7977605 4.9618778 0.37998274 91
7.1743517 3.8840134 0.5962407 66
1.2185687 0.089272268 0.088010877 21
14.068444 -5.1204948 0.84226942 35
nan nan nan 0
3.8160419 4.9480815 0.37671101 91
7.3072696 3.9214082 0.60463345 255
1.1989723 0.083419755 0.086783722 24
2.0003316 -0.73637515 0.1210391 25
0.80400562 -0.78624165 0.032000657 40
3.8391385 4.9369206 0.3715544 93
8.917345 4.73944 0.73096192 72
1.1943074 0.078488387 0.086423621 25
1.9832871 -0.73915434 0.12092752 25
0.80438614 -0.79295558 0.032931443 40
3.8586855 4.9282455 0.36857373 93
8.9418344 4.7144942 0.73168391 72
1.1895689 0.074216031 0.086271554 25
1.9714023 -0.74217963 0.12182774 26
nan nan nan 0
3.87692 4.91432 0.36311144 93
8.9817171 4.6935325 0.72464532 72
1.1799059 0.069272727 0.085137047 25
1.9593385 -0.7458486 0.12125035 28
nan nan nan 0
3.8967729 4.8989143 0.3587414 93
9.013072 4.6659474 0.72394383 72
1.1602266 0.06344492 0.084105738 26
nan nan nan 0
nan nan nan 0
3.9131522 4.8861599 0.35437119 93
9.0509033 4.6475391 0.72217101 72
1.1355431 0.058318954 0.082102448 28
13.931737 -5.4205556 0.88028568 35
nan nan nan 0
3.9343243 4.8758612 0.35027996 93
9.0904369 4.6258154 0.71860057 72
1.1307678 0.053919058 0.081742346 30
13.902199 -5.4678149 0.88491249 34
nan nan nan 0
3.9523222 4.8615971 0.3459059 93
9.1253691 4.601562 0.71643877 72
1.1259757 0.049554955 0.081382245 31
13.877139 -5.5167742 0.8898297 34
nan nan nan 0
3.9751227 4.8497391 0.34180382 95
9.1617298 4.5738611 0.71605015 71
1.13112 0.045232739 0.082137503 31
1.9123753 -0.76915765 0.1242665 31
nan nan nan 0
3.9912965 4.8366675 0.33852047 96
9.1994209 4.5546308 0.71421093 71
1.1362473 0.041664295 0.082499348 32
1.9097739 -0.77547878 0.12498601 32
nan nan nan 0
4.0091839 4.8222313 0.33304796 96
9.2342997 4.5298333 0.71021366 71
1.1314225 0.037335463 0.081939928 32
1.897644 -0.77866751 0.12509675 32
nan nan nan 0
4.0237741 4.8038545 0.32840812 96
9.2734957 4.5069685 0.70833677 72
1.1165916 0.032944612 0.080857024 32
1.8901268 -0.7836892 0.12550662 32
nan nan nan 0
4.0358944 4.7809114 0.32351688 97
9.3126459 4.4838758 0.70644236 77
1.0967637 0.028336667 0.079413153 35
1.8825982 -0.78866631 0.12591299 32
nan nan nan 0
4.0405593 4.7509999 0.31921855 98
9.3471394 4.4583569 0.70599872 77
1.0818754 0.023984434 0.078707978 37
1.8796134 -0.79552656 0.12733793 32
nan nan nan 0
4.062993 4.7387013 0.31511644 99
9.3832283 4.4294219 0.70373708 77
1.071991 0.0194603 0.07798256 39
1.8763641 -0.80304796 0.12805037 32
nan nan nan 0
4.0918446 4.740447 0.31284598 99
9.3979769 4.398334 0.70192605 77
1.0670363 0.015830962 0.077992365 39
1.8827702 -0.8131873 0.13010837 32
nan nan nan 0
4.1340017 4.7505989 0.30799779 101
9.397891 4.3523912 0.69334602 77
1.0571454 0.01143986 0.076894432 39
1.8931885 -0.82672018 0.13141862 32
nan nan nan 0
4.1547837 4.7392912 0.30494201 101
9.4138899 4.3179674 0.69153833 75
1.0471801 0.0074935909 0.076534562 39
1.8900613 -0.83361632 0.13286081 32
nan nan nan 0
4.1705818 4.7256064 0.30164194 101
9.4510841 4.2971506 0.6895799 75
1.0422125 0.0040018284 0.076170117 39
1.887244 -0.8398605 0.13358188 33
nan nan nan 0
4.1797338 4.7044392 0.2967706 101
9.4927921 4.2781839 0.68793356 76
1.0272732 0.00017929298 0.074897468 40
1.8750083 -0.84266216 0.13365412 34
nan nan nan 0
4.1853933 4.672894 0.29144901 101
9.5420055 4.2543626 0.68659413 76
1.0172812 -0.0033734443 0.074347869 40
1.8673216 -0.84744757 0.13404554 40
nan nan nan 0
4.1850872 4.6398611 0.28592661 101
9.5882263 4.2369099 0.68523031 66
1.0172644 -0.0067468518 0.074347869 40
1.8689947 -0.85569257 0.1350892 40
nan nan nan 0
4.2122426 4.6356912 0.28333274 100
9.6350622 4.2174678 0.68567765 64
1.0122205 -0.01042365 0.074336767 40
1.8748168 -0.86668408 0.13718696 40
nan nan nan 0
4.246201 4.6387892 0.28007215 100
9.6644077 4.1881719 0.68297678 26
1.0071895 -0.014063931 0.073970579 40
1.8806038 -0.87773925 0.13893639 40
nan nan nan 0
4.2870097 4.6490426 0.27721444 98
9.6936684 4.1587172 0.68026549 23
1.0021453 -0.01766747 0.073604383 40
1.8863556 -0.88885826 0.14033225 40
nan nan nan 0
4.3143506 4.6444192 0.2734459 98
9.7458057 4.1388564 0.67914391 23
1.0020738 -0.021340398 0.073604383 40
1.8786919 -0.89327425 0.14072269 40
nan nan nan 0
4.334887 4.6323609 0.2692323 101
9.8163271 4.1264038 0.67926753 26
0.99700385 -0.024888597 0.073238194 40
1.8753387 -0.90012205 0.14181189 40
nan nan nan 0
4.355391 4.6202126 0.26501158 101
9.8776741 4.1096563 0.67871612 28
0.99192142 -0.028399918 0.072872005 40
1.8719822 -0.9069677 0.14253798 40
nan nan nan 0
4.37747 4.6064458 0.26078376 101
9.9221096 4.0814972 0.6749981 31
0.99179941 -0.032381508 0.072872005 40
1.868259 -0.91444206 0.14362712 40
0.42133445 -0.50695944 0.032701053 36
4.3962688 4.5956125 0.25765884 101
9.9586954 4.0579867 0.67656785 33
0.98667783 -0.035490096 0.072850458 40
1.8606534 -0.9183802 0.14473131 47
0.41000885 -0.49685025 0.032520015 37
4.4174738 4.5824237 0.25341773 101
9.9922333 4.0290117 0.67406291 33
0.9865284 -0.039105706 0.073022768 40
1.8527648 -0.92294711 0.14510594 49
0.39867824 -0.48674288 0.032202993 37
4.4378724 4.5699434 0.24805772 100
9.3491716 3.7299409 0.62270188 28
0.98641139 -0.042550195 0.072678134 40
1.8448908 -0.92747998 0.14511669 49
0.39688087 -0.48818767 0.032532424 37
4.4581461 4.5572796 0.2460269 99
9.3627796 3.6956496 0.62270188 25
0.98622334 -0.046164095 0.073022768 40
1.845836 -0.93644601 0.14691225 51
0.3950673 -0.48961225 0.03319126 37
4.4749389 4.5410304 0.24157608 99
9.35322 3.6523108 0.61765325 23
0.98604751 -0.049778476 0.073022768 40
1.8512014 -0.94771534 0.14870921 51
0.39637661 -0.4949359 0.03389737 37
4.4811101 4.5140791 0.23656763 99
9.3853655 3.6252756 0.61536926 23
0.99082482 -0.053661153 0.07356476 40
1.8565308 -0.95904779 0.15015186 61
0.39454138 -0.49636203 0.034450714 37
4.4922419 4.4891062 0.23176235 99
9.5119486 3.6303575 0.61914122 23
0.9955793 -0.057927772 0.073934436 40
1.861439 -0.97106934 0.1519679 63
0.39253065 -0.49792278 0.034893364 37
4.5001245 4.4672565 0.2269709 99
9.7388954 3.6800218 0.62946808 38
1.0003587 -0.06153506 0.074304111 40
1.8669888 -0.98185426 0.15342617 59
0.39393994 -0.50313318 0.035614233 37
4.5331535 4.4625001 0.2232455 99
10.399061 3.8818445 0.66723627 35
1.0050662 -0.065875508 0.074849576 40
1.8673654 -0.99164188 0.15489596 41
0.4010829 -0.51651424 0.037019636 36
4.5551276 4.4544849 0.22137232 100
10.435284 3.8559883 0.66873634 35
1.0147648 -0.069891483 0.07594572 40
1.8463863 -0.98836458 0.15489678 54
0.41449648 -0.53765208 0.03902505 35
4.5608034 4.4274502 0.21530454 100
10.477803 3.8281119 0.66469568 34
1.0195012 -0.073973067 0.075961202 40
1.8251777 -0.98563516 0.15378362 99
0.41553956 -0.54311019 0.039789423 35
4.3503857 4.1923237 0.20147751 79
10.510541 3.7964654 0.66588527 34
1.019197 -0.077528313 0.076496407 40
1.8083228 -0.98511088 0.15411228 99
0.41956189 -0.5525521 0.040975749 35
4.3983474 4.2075605 0.19766569 79
10.562426 3.7714996 0.66043472 34
1.0139623 -0.080869041 0.075768188 40
1.8046764 -0.99171907 0.15447168 101
0.42653212 -0.56602716 0.042231221 35
4.6348414 4.4013758 0.2053341 48
10.609126 3.74439 0.66249216 34
1.0185881 -0.084996149 0.076674804 40
1.8009108 -0.99826115 0.15626863 101
0.45431727 -0.60751939 0.045999691 35
4.6591349 4.3905463 0.19895123 48
10.656202 3.7171397 0.65667069 34
1.0182962 -0.088731207 0.076318003 40
1.7973915 -1.0045282 0.156628 101
0.4818148 -0.64923745 0.049449317 37
4.6861954 4.3837299 0.19717723 80
10.683913 3.6829381 0.65754199 34
1.0228897 -0.09291026 0.077228084 40
1.793602 -1.0110552 0.15806544 101
0.49715656 -0.67506647 0.052158747 39
4.7170048 4.3802438 0.19217411 98
10.71184 3.648694 0.65248823 34
1.0275329 -0.097130463 0.07724271 40
1.7898601 -1.0176086 0.15842479 101
0.50055164 -0.68491989 0.053223874 39
4.7441006 4.3731327 0.19036949 98
10.720409 3.6078165 0.6522004 34
1.0370537 -0.10186674 0.078534633 40
1.7860221 -1.0241066 0.15986215 101
0.49800494 -0.68670434 0.054112215 39
nan nan nan 0
4.2253838 1.4047791 0.25362697 29
1.0515815 -0.10718662 0.07929296 39
1.7822323 -1.0306319 0.16022147 101
0.49838263 -0.69255197 0.054877289 39
6.7222271 6.106041 0.25525308 100
nan nan nan 0
1.061076 -0.11189808 0.080599673 39
1.7740155 -1.0345752 0.16162573 101
0.50160617 -0.70244765 0.056423057 39
6.753211 6.0870237 0.24760021 100
8.8465214 2.8692889 0.52484691 25
6.3591638 -0.69419539 0.4809885 87
1.7787803 -1.0461096 0.16277048 101
0.50189555 -0.70832807 0.057203755 39
6.7867146 6.0722866 0.24482971 99
8.8759947 2.8429365 0.52597386 25
6.3513713 -0.71691072 0.48396036 87
1.7748362 -1.052564 0.16421109 101
0.50200593 -0.71428216 0.058446798 39
6.812788 6.0508027 0.23860288 99
9.2577934 2.9278557 0.54455876 192
6.3387127 -0.73902029 0.48431918 87
1.7623373 -1.0539018 0.16449301 104
0.51077515 -0.73245126 0.060406141 39
6.8350735 6.0259275 0.23065117 99
11.084356 3.4608836 0.64515072 34
6.3262291 -0.76107699 0.48133823 87
1.758438 -1.0603391 0.1648514 104
0.52225465 -0.75479424 0.062734261 39
5.6949015 4.9837542 0.18759321 68
11.130579 3.4305935 0.64302665 34
6.3084702 -0.78240728 0.48131785 87
1.7544659 -1.0667319 0.16592652 104
0.52510607 -0.7648918 0.064063892 39
5.7178674 4.9652128 0.18243034 167
11.176619 3.3999782 0.6429171 34
6.2955852 -0.80424953 0.48167056 87
1.7504702 -1.0731099 0.16700162 104
nan nan nan 0
5.6944742 4.9084048 0.17585729 85
11.213127 3.3662326 0.64020413 34
6.2777662 -0.825369 0.48053545 87
1.7506897 -1.0820923 0.16848461 103
1.0360636 -1.5331396 0.1306901 96
5.7428808 4.9135575 0.17283536 86
11.244645 3.3308156 0.63924938 34
6.2647338 -0.84702522 0.48088205 87
1.7468268 -1.08815 0.16956222 102
1.0414827 -1.5534011 0.13373129 41
5.7457018 4.8796096 0.16711555 86
8.2905893 2.4227674 0.46778169 61
6.25178 -0.86750615 0.48122513 87
1.7427514 -1.0944978 0.17063977 102
1.0550505 -1.586176 0.1378901 37
5.7674356 4.8617945 0.16327675 86
8.2755833 2.3854954 0.46342343 61
6.238687 -0.88900757 0.48046491 87
1.7386522 -1.10083 0.17171727 101
1.0574161 -1.6024382 0.14031337 37
5.7899809 4.8428926 0.15811527 88
8.2507305 2.3456125 0.46004581 58
6.2254376 -0.91041261 0.48080283 87
1.7387551 -1.1098435 0.1728531 101
4.3342342 -6.6208816 0.58528858 36
5.8116431 4.8249187 0.15162838 88
8.2306576 2.3073344 0.45396346 58
6.2073512 -0.93101782 0.47856435 86
1.7430046 -1.1215683 0.17441165 101
4.2880459 -6.6030111 0.58646065 36
5.8370442 4.8099771 0.14918892 88
8.2005587 2.2665114 0.45184213 58
6.1888661 -0.9514519 0.48070264 87
1.7554984 -1.1387277 0.17754957 78
4.2283792 -6.5636754 0.58980882 36
5.8624725 4.7949615 0.14277692 87
8.1801329 2.2286265 0.44581199 66
6.1706457 -0.97181511 0.47846422 88
1.7679398 -1.1560261 0.17997786 59
4.1718559 -6.5283685 0.59069818 36
5.8847795 4.7756128 0.13890298 87
8.159461 2.1909008 0.44128764 69
6.1571164 -0.99282455 0.478789 88
1.7719308 -1.1679293 0.18193804 48
4.1156497 -6.4927378 0.59150368 36
5.9100862 4.7603283 0.13511275 84
8.1337223 2.1520598 0.43799356 69
6.143599 -1.0137615 0.47802356 88
1.771708 -1.1771199 0.18347891 40
4.0597076 -6.4566989 0.59355646 36
5.9314704 4.7418146 0.12990026 82
8.1175413 2.1159742 0.43376562 68
6.1348433 -1.0354285 0.47872669 88
1.7714404 -1.1863238 0.18502492 40
4.0014496 -6.41611 0.5951122 36
5.9528136 4.7232189 0.12335446 82
8.0916071 2.0775714 0.42758414 67
6.1214485 -1.0551573 0.47687539 89
1.7548745 -1.1841234 0.18409751 40
3.9462767 -6.3795996 0.59433246 36
5.9740624 4.7045012 0.11945415 82
8.0653505 2.0393498 0.42434314 67
6.1223674 -1.0784367 0.47834307 89
1.7257308 -1.1736861 0.18259129 40
3.8939245 -6.3468456 0.59648681 36
6.0000257 4.6877337 0.11429556 82
8.0389233 2.0013485 0.42111433 67
6.1281042 -1.1026199 0.48019707 87
1.696689 -1.1630526 0.18105371 68
3.8444581 -6.3180532 0.59894848 36
6.0251155 4.6718745 0.11045367 82
8.0123959 1.9635854 0.41645789 70
6.1484547 -1.1295619 0.48321047 79
1.6882387 -1.1663783 0.18168974 68
3.7927353 -6.2848086 0.59963369 36
6.0462341 4.6528654 0.10386831 81
7.9909587 1.9258362 0.41064149 70
6.1835542 -1.1594549 0.48519513 46
1.6920748 -1.1782137 0.18329147 42
3.7413099 -6.2512727 0.60024202 36
6.0712366 4.636776 0.10000451 81
7.9688792 1.8896383 0.40771523 74
6.2134542 -1.1886519 0.48899049 29
1.6998956 -1.1929346 0.18570706 40
3.6901288 -6.2173567 0.6020354 36
6.0970325 4.6195188 0.093460046 81
7.9516411 1.8547943 0.40219706 74
6.2287116 -1.2152523 0.48942423 24
1.7076828 -1.207765 0.18740813 39
3.6393557 -6.1833339 0.60122818 36
6.1219783 4.6031981 0.086898074 81
nan nan nan 0
6.2242994 -1.2380902 0.48831657 24
1.7074592 -1.2165705 0.18858619 39
3.5938528 -6.1575408 0.60244805 36
6.1468587 4.5867357 0.082995765 81
7.8971581 1.7811497 0.39168859 74
6.2294083 -1.262859 0.49019316 23
1.6988634 -1.2198582 0.18923335 39
3.5485361 -6.1314073 0.60484147 36
6.1684771 4.5660996 0.079031467 83
7.874445 1.7457224 0.38883108 74
6.2343335 -1.2876644 0.49318421 23
1.6943005 -1.2260183 0.1903284 39
3.5034606 -6.1050272 0.60715616 36
6.1932635 4.5494041 0.075110793 83
7.8515782 1.7104855 0.38598406 74
15.201095 -3.195061 1.2061269 32
1.6816684 -1.2262936 0.19051187 39
3.4561636 -6.07407 0.60895807 36
6.2140055 4.5296698 0.065764949 83
7.8337011 1.67654 0.3777937 74
15.19477 -3.251929 1.1983781 31
nan nan nan 0
3.4092984 -6.0431294 0.60703975 36
6.2435431 4.5145912 0.060514309 83
7.8253236 1.6447754 0.37290034 74
15.202437 -3.311888 1.1972003 31
nan nan nan 0
3.3626051 -6.0117445 0.60749102 36
6.272275 4.5004506 0.053895328 83
4.720417 0.97411495 0.22224137 248
15.175799 -3.3643935 1.1933366 31
nan nan nan 0
3.318604 -5.9844565 0.60831517 36
6.3050632 4.4890614 0.045929812 87
4.5872321 0.92828149 0.21170874 10
15.125068 -3.411355 1.1821566 33
nan nan nan 0
3.2773514 -5.9614797 0.60714799 35
6.3018236 4.4850974 0.033750195 83
4.6855431 0.94817585 0.20705006 18
15.112661 -3.4085572 1.1512754 33
nan nan nan 0
3.2763464 -5.9571886 0.59839779 36
6.2731538 4.4994221 0.033684745 83
4.6527872 0.95931226 0.20326453 37
15.179186 -3.367924 1.1390698 31
1.6247562 -1.2119384 0.1805461 39
3.3202591 -5.9849777 0.59398186 36
6.2436709 4.5146832 0.034964059 83
7.8271284 1.6437284 0.33800641 74
15.207012 -3.3156645 1.1265838 31
1.6493802 -1.2209227 0.18025714 39
3.3644192 -6.0125241 0.58945549 36
6.2149549 4.5287004 0.036238138 83
7.8357058 1.6755389 0.33863977 76
15.195254 -3.2548065 1.1166425 32
1.673828 -1.2299988 0.18063214 39
3.4087749 -6.0397377 0.58602917 36
6.1902485 4.5455265 0.037531409 83
7.8495088 1.7071646 0.33527821 76
15.208029 -3.1992905 1.1030809 32
1.6865271 -1.2298367 0.17931277 39
3.4583547 -6.0754542 0.5821197 36
6.1695166 4.5652018 0.040186018 81
7.8725214 1.742413 0.33512199 75
6.2277842 -1.2863117 0.44802725 23
1.6951858 -1.2266588 0.17791477 39
3.5032303 -6.1021581 0.57848585 36
6.1447206 4.5818019 0.041471437 81
7.8904505 1.7767427 0.33616018 74
6.2226892 -1.2626277 0.44399992 23
1.7038429 -1.2234336 0.17650796 39
3.5483978 -6.1287007 0.57352149 36
6.1198797 4.5982766 0.044089388 81
7.9277682 1.8157012 0.33660939 74
6.2177181 -1.2379092 0.43998295 24
1.7043819 -1.2143779 0.17426248 39
3.5937552 -6.1549058 0.56969053 36
6.0941949 4.6156945 0.046700355 81
7.9503117 1.8515582 0.33642527 74
6.2273345 -1.2161118 0.43700695 24
1.7048764 -1.2053336 0.17202559 39
3.6404312 -6.1802254 0.56576502 36
6.0692735 4.6319232 0.049304336 81
7.9629169 1.8852888 0.3372488 73
6.2221751 -1.1914459 0.4330028 29
1.705325 -1.1963005 0.16979724 40
3.688817 -6.210206 0.56213295 36
6.0443077 4.648025 0.053232107 81
7.9850388 1.9214606 0.33991763 70
6.192255 -1.1622052 0.42951658 46
1.6934096 -1.1787044 0.1670921 42
3.7399316 -6.2440228 0.56131923 36
6.0232711 4.6670785 0.054527108 81
8.0120268 1.9590485 0.33848587 69
6.157588 -1.1323507 0.42133248 79
1.6855817 -1.164108 0.16337872 68
3.7941239 -6.2821517 0.55568612 36
6.0005331 4.6881299 0.057149392 82
8.0380917 1.9996516 0.33847532 67
6.1326461 -1.1034372 0.41605556 87
1.6944708 -1.1602283 0.16198415 68
3.845561 -6.3099413 0.5517233 36
5.980999 4.7048922 0.061096337 82
8.0604229 2.0336142 0.34115109 67
6.121604 -1.0805056 0.41397133 89
1.7148679 -1.1658607 0.16247107 59
3.8954151 -6.344305 0.54932189 36
5.9550371 4.7215967 0.063668862 82
8.086792 2.0718224 0.34258622 67
6.1257358 -1.0580983 0.41071647 89
1.7440432 -1.1763719 0.16297865 40
3.9478164 -6.3771124 0.54551524 36
5.9337487 4.740242 0.068929084 84
8.1129303 2.1102362 0.34548441 69
6.134563 -1.0364823 0.40996021 88
1.76478 -1.1814173 0.16341151 40
4.0056906 -6.4179201 0.544949 36
5.9124117 4.7588 0.072857648 84
8.1340055 2.1475782 0.34965643 69
6.1482358 -1.0156291 0.40953013 88
1.7691694 -1.1749883 0.16229951 48
4.0613132 -6.4542499 0.54260522 36
5.8871436 4.7741237 0.075407453 87
8.1550913 2.1851501 0.34942868 69
6.1619792 -0.99471205 0.40691778 88
1.7735817 -1.1685735 0.16044608 48
4.1173058 -6.4903393 0.53881508 36
5.8657026 4.79248 0.079323761 87
8.1807718 2.2241998 0.350876 66
6.1756506 -0.97370785 0.40429491 88
1.7696221 -1.1566852 0.15784796 54
4.1709299 -6.5219011 0.5345546 36
5.8395057 4.8085842 0.083179846 87
8.2014017 2.2621224 0.35360146 58
6.1891117 -0.95259529 0.40384731 87
1.7571839 -1.1393852 0.15526231 78
4.2274928 -6.557271 0.53187954 36
5.8141236 4.8235507 0.085706912 88
8.2267332 2.301589 0.35505491 58
6.2075725 -0.93215883 0.401526 87
1.7446855 -1.1222194 0.1519734 101
4.2871404 -6.5965748 0.52806222 36
5.7925463 4.8416023 0.088285461 87
8.2518835 2.3412712 0.35650837 61
6.2258973 -0.91158962 0.40028712 87
1.7404678 -1.1105093 0.14980143 101
4.3373513 -6.6180792 0.52278996 36
5.7708888 4.859539 0.09349402 86
8.2671909 2.3783886 0.35904795 61
6.2389908 -0.89127296 0.39982206 87
1.7403784 -1.1014975 0.14836119 101
0.61054605 -0.92418569 0.072210833 22
5.7453632 4.8741465 0.0986301 86
8.2774811 2.4142332 0.36289179 61
6.2521687 -0.86978465 0.3993535 87
1.7444696 -1.0951524 0.14728273 102
0.5890668 -0.88460571 0.068541415 22
5.7160316 4.8854041 0.10105851 86
11.253121 3.3269179 0.49387765 34
6.2654119 -0.84823036 0.39667442 87
1.7485803 -1.0888189 0.14548521 103
0.55897331 -0.83278155 0.063629642 23
5.7350841 4.9399204 0.10437261 86
11.226577 3.3638635 0.4912014 34
6.2834578 -0.82723284 0.39540145 87
1.7484227 -1.0798478 0.14333966 104
0.53968835 -0.7977159 0.060088564 23
5.7017794 4.947752 0.10936723 85
11.180548 3.3947785 0.49381447 34
6.2964158 -0.80547243 0.39491624 87
1.7524327 -1.0734714 0.14226365 104
0.52576828 -0.77103645 0.057406146 39
nan nan nan 0
11.134607 3.4254525 0.49233663 34
6.3094354 -0.78364521 0.39220822 87
1.7521976 -1.0645154 0.14012927 104
0.50883639 -0.74036151 0.054316521 39
6.8508477 6.0334625 0.14181451 99
11.08851 3.4558094 0.49288592 34
6.3221741 -0.76170862 0.39282393 87
1.7561294 -1.0581112 0.13941358 106
0.50304186 -0.72621387 0.052794516 39
6.8211718 6.0518627 0.14484228 99
11.05195 3.4889083 0.49182591 33
6.3399982 -0.74029171 0.39040539 87
1.7643818 -1.0542884 0.1379592 104
0.50001711 -0.71622473 0.051283274 39
6.7914124 6.0700908 0.1510426 99
8.8977537 2.8447695 0.39968944 25
6.3526545 -0.71817839 0.38990006 87
1.7724046 -1.0507039 0.13721523 102
0.49979201 -0.71034122 0.050232291 39
6.7605863 6.0893955 0.15405284 99
8.8872671 2.8773623 0.39968944 25
6.3653016 -0.69598967 0.38827372 87
1.7720453 -1.0417324 0.1350892 102
0.49953488 -0.70447505 0.04903926 39
6.7307363 6.1073413 0.16022862 99
8.8623552 2.9052267 0.40067601 24
1.0670836 -0.11290824 0.064878061 39
1.775892 -1.0352542 0.13437167 102
0.49923566 -0.69861215 0.04800649 39
4.7768993 4.3695588 0.11752401 119
4.2238369 1.4034461 0.19121709 29
1.0625964 -0.10812199 0.064017072 39
1.7801344 -1.0281755 0.13257776 102
0.49914619 -0.69259268 0.0468334 39
4.754982 4.3785605 0.120727 99
nan nan nan 0
1.0530151 -0.10362014 0.063418783 39
1.7835941 -1.022301 0.13150136 102
0.49864665 -0.68683225 0.045966987 39
4.72786 4.385716 0.12382349 98
10.712032 3.6425016 0.49004012 34
1.0385138 -0.098351337 0.061975155 40
1.7874084 -1.0158019 0.13006613 102
0.49824062 -0.68100882 0.044812981 39
4.6934428 4.3859043 0.12670705 80
10.689002 3.678432 0.49355334 34
1.0338967 -0.094091967 0.061678626 40
1.7911786 -1.0092772 0.12898962 102
0.49779323 -0.67519033 0.043815792 39
4.6619453 4.3901234 0.13078326 48
10.661133 3.712599 0.49683976 34
1.0243007 -0.089434557 0.060906105 40
1.7949245 -1.0027382 0.12791312 102
0.4913491 -0.66136098 0.042458184 37
4.4100232 4.1834927 0.12839083 67
10.619022 3.7416315 0.4994508 34
1.0246216 -0.08567971 0.060906105 40
1.7942805 -0.99376732 0.12652873 102
0.46386504 -0.61961013 0.039209526 35
4.3909965 4.1961274 0.13146538 67
10.572302 3.7687862 0.49789971 34
1.019985 -0.081528537 0.060074691 40
1.7979878 -0.98722649 0.12509675 102
0.43307528 -0.57408464 0.035673879 35
4.4604683 4.296905 0.13730514 97
10.5242 3.7993228 0.49634865 34
1.0153476 -0.077057257 0.059426203 40
1.8064158 -0.98243731 0.12360672 102
0.41725707 -0.54852217 0.033465769 35
4.5645628 4.4264593 0.14429143 100
10.483224 3.8238719 0.49891436 34
1.0155975 -0.073689818 0.059426203 40
1.8184867 -0.98120213 0.12348548 99
0.42516157 -0.55508363 0.033462655 35
4.5303574 4.4256234 0.14814574 99
10.445543 3.8535643 0.50168407 35
1.0158712 -0.069967687 0.059248485 40
1.844134 -0.98633087 0.12388185 54
0.42110443 -0.5456323 0.032503448 35
4.403585 4.3334379 0.14883426 64
10.407786 3.8830321 0.50443643 35
1.0061587 -0.065594405 0.058667615 40
1.8654337 -0.98894721 0.123959 54
0.40778831 -0.52439332 0.030746097 36
4.4117017 4.374896 0.15293038 64
10.37479 3.9140997 0.50352913 35
1.0014298 -0.061776396 0.057851844 40
1.8691218 -0.98214334 0.12248496 59
0.39432392 -0.50326163 0.028920723 37
4.4450488 4.4403963 0.16013582 64
9.6554518 3.6831968 0.47469106 38
0.99664611 -0.057815313 0.05791251 40
1.8638736 -0.97068465 0.12153906 59
0.39308003 -0.49790427 0.028362632 37
4.4658704 4.4971566 0.16485567 99
9.3935575 3.6265559 0.46428874 23
0.99190587 -0.053546075 0.057276204 40
1.8545383 -0.956379 0.1188521 56
0.39518046 -0.49627632 0.02769831 37
4.4754629 4.5368085 0.1679903 99
9.3628654 3.6504285 0.46336749 23
0.98712224 -0.050005458 0.056470871 40
1.8488842 -0.94571471 0.11683363 51
0.39371425 -0.49108431 0.026930947 37
4.4587216 4.5530963 0.17243931 99
9.3492718 3.6846611 0.46687534 24
0.98729897 -0.046387136 0.056470871 40
1.8479216 -0.93669313 0.11582962 51
0.39552614 -0.48965609 0.02638166 37
4.4419403 4.5693426 0.175776 101
10.036346 3.9980059 0.5019142 33
0.98748195 -0.042769045 0.056125857 40
1.851432 -0.92995894 0.11402162 49
0.39733541 -0.48822427 0.025722491 37
4.4215841 4.5818834 0.18119484 101
10.0074 4.0290365 0.50874966 33
0.98761243 -0.039148677 0.056470871 40
1.8592975 -0.92539138 0.11429636 49
0.39913067 -0.48677504 0.025392896 37
4.4012375 4.5943809 0.18438394 101
9.9648075 4.0543942 0.50733644 33
0.98777866 -0.035529692 0.055953342 40
1.8627653 -0.91861409 0.11248392 49
0.40729275 -0.49303275 0.02512628 37
4.3800306 4.6075301 0.1886773 101
9.9311571 4.0831923 0.51201671 31
0.98790222 -0.031909063 0.055953342 40
1.8706411 -0.91398978 0.11202758 44
0.42508891 -0.51075113 0.02564387 36
4.3595924 4.6198211 0.1929636 101
9.8928986 4.1099148 0.51456541 28
0.99300259 -0.028430874 0.056235939 40
1.8740308 -0.90715277 0.11093744 40
nan nan nan 0
4.3391442 4.6320467 0.19613507 98
9.8271132 4.1248846 0.51192665 26
0.99811023 -0.024916217 0.05617002 40
1.8774126 -0.90031129 0.10948387 40
nan nan nan 0
4.3186402 4.6441584 0.20040812 98
9.7565899 4.1374078 0.51274717 23
1.0031859 -0.021364082 0.05645087 40
1.8807342 -0.89344049 0.10875706 40
nan nan nan 0
4.2913485 4.6488619 0.20324704 98
9.6999607 4.155405 0.51241428 23
1.0032771 -0.017687425 0.056100611 40
1.8885994 -0.8887074 0.10719644 40
nan nan nan 0
4.2471747 4.6349778 0.20635165 98
9.6707525 4.1849084 0.51536506 24
1.0083269 -0.014079813 0.056379721 40
1.887352 -0.8796857 0.10621314 40
nan nan nan 0
4.1392722 4.5505958 0.20621742 35
9.6414557 4.214252 0.5183053 64
1.0133618 -0.010612288 0.056658827 40
1.8769953 -0.86649871 0.10472738 47
nan nan nan 0
4.0990014 4.539639 0.21038242 35
9.5983677 4.2373877 0.52049178 66
1.0183859 -0.0069320397 0.056937933 40
1.8665837 -0.85340685 0.10289386 54
nan nan nan 0
4.0781069 4.5515122 0.21447702 35
9.5505953 4.2581921 0.52423286 66
1.0233967 -0.003215106 0.057217039 40
1.8651824 -0.84451467 0.10192881 40
nan nan nan 0
4.0513597 4.5551434 0.21714288 35
9.5076027 4.2808671 0.52273083 76
1.0284239 0.00017949383 0.056957673 40
1.8771495 -0.84244329 0.10098963 34
nan nan nan 0
4.0162811 4.5459709 0.22030987 36
9.4613628 4.2978392 0.52460581 76
1.0383909 0.0039871545 0.057691894 39
1.8848205 -0.83759987 0.10051479 33
nan nan nan 0
3.9797227 4.5380044 0.22343493 35
9.4226017 4.3219633 0.52877331 77
1.0483537 0.0078679528 0.058246624 39
1.8970681 -0.83472991 0.099916354 32
nan nan nan 0
3.9810722 4.5764723 0.22772072 35
9.4051762 4.3597531 0.52877331 77
1.06331 0.012248994 0.058707532 39
1.9004673 -0.82713562 0.098469384 32
nan nan nan 0
4.0245972 4.657608 0.23432022 97
9.4041538 4.3972239 0.53134936 77
1.0782598 0.015997479 0.059157979 39
1.8849177 -0.81294405 0.096087217 32
nan nan nan 0
4.0529027 4.7252636 0.24241562 97
9.3921509 4.4336343 0.53885585 77
1.0881565 0.020133723 0.060085651 37
1.8786976 -0.80210769 0.095619626 32
nan nan nan 0
4.0451899 4.7514014 0.24626666 97
9.3577242 4.4593959 0.53962886 77
1.0980788 0.024343651 0.060253501 37
1.8770853 -0.79329795 0.093963198 32
nan nan nan 0
4.037281 4.7774773 0.25231671 97
9.3186464 4.482759 0.54193878 77
1.1129546 0.028754987 0.06107514 35
1.8846332 -0.78835911 0.093123853 32
nan nan nan 0
4.0292621 4.8035893 0.25729847 96
9.2794409 4.5058546 0.54603171 73
1.1278127 0.03327569 0.061896775 32
1.8921552 -0.78336942 0.09263669 32
nan nan nan 0
4.014709 4.8220248 0.26188397 96
9.2447577 4.530961 0.54856831 71
1.1376626 0.037740156 0.062444534 32
1.8996654 -0.77833498 0.092146046 32
nan nan nan 0
3.9960172 4.8372269 0.26735944 96
9.2099304 4.5558319 0.55288428 71
1.1375058 0.041909244 0.0626432 31
1.9071641 -0.773256 0.091651879 32
nan nan nan 0
3.978142 4.8516951 0.27173969 95
9.170661 4.57832 0.55511898 71
1.1373445 0.046078127 0.0626432 31
1.9239228 -0.77185225 0.09159565 31
nan nan nan 0
3.9570897 4.862258 0.27480581 93
9.1358995 4.6028728 0.55582291 72
1.1371897 0.050247356 0.062245864 30
13.886873 -5.5122252 0.64972025 34
nan nan nan 0
3.9359508 4.8726544 0.28005308 93
9.1009922 4.6271873 0.55830169 72
1.1369979 0.054415025 0.062245864 29
13.916492 -5.4650245 0.64493585 34
nan nan nan 0
3.917942 4.8868942 0.28442591 93
9.0615005 4.648984 0.56226933 72
1.1467518 0.059095282 0.062992297 28
13.941295 -5.4158711 0.63993055 34
nan nan nan 0
3.8998799 4.9010649 0.28879866 93
9.0264034 4.6728487 0.56648892 72
1.1614933 0.063920848 0.063813932 26
1.9491671 -0.7489959 0.088613465 31
nan nan nan 0
3.8817642 4.9151659 0.2931712 93
8.987092 4.6943445 0.56509775 72
1.1812096 0.069349259 0.06449642 25
1.9566263 -0.74364346 0.087364167 28
nan nan nan 0
3.863564 4.9291573 0.2986367 93
8.9517212 4.7177105 0.57281536 72
1.2008444 0.074919499 0.066214956 24
1.9686913 -0.73998237 0.087781176 26
0.80592757 -0.79892504 0.020600734 40
3.8422761 4.939177 0.30276731 91
8.9218864 4.7418537 0.57373101 71
1.2055665 0.079650968 0.066067971 24
1.9808127 -0.73626411 0.086722903 26
0.79817557 -0.78546095 0.0191558 40
3.8209326 4.9490623 0.30798206 91
7.2235765 3.8732476 0.4711701 66
12.769604 0.89069808 0.70446128 18
14.001713 -5.1460791 0.61218578 35
0.80463225 -0.78603059 0.018652352 40
3.8026359 4.9628615 0.31234699 91
7.1916966 3.8901582 0.47144935 65
12.776334 0.93823528 0.70277488 18
14.081921 -5.1170511 0.60439122 35
nan nan nan 0
3.781265 4.9726157 0.31645882 91
7.1508827 3.9020267 0.47398788 65
12.46419 0.96125555 0.68579435 27
14.138394 -5.0789876 0.60075951 35
nan nan nan 0
3.7629142 4.9863086 0.31972969 91
7.123342 3.9209485 0.4745357 65
12.082503 0.97638005 0.66286385 25
14.171431 -5.0322881 0.59086019 35
nan nan nan 0
3.7435372 5.0004492 0.32627118 91
7.095541 3.9396005 0.47932786 65
12.043789 1.017696 0.66517186 25
14.199207 -4.983623 0.59125274 35
nan nan nan 0
3.7250822 5.013999 0.32954177 90
7.0679154 3.9582226 0.47985733 64
11.975443 1.0561404 0.65950191 25
14.222485 -4.9333181 0.58093971 35
nan nan nan 0
3.7035105 5.0233192 0.33581409 89
7.044302 3.9789846 0.4863264 64
11.90166 1.0936089 0.65983957 27
14.249925 -4.884397 0.58132535 35
nan nan nan 0
3.679039 5.0286102 0.33962673 89
7.0165873 3.997323 0.48683581 64
11.83308 1.1310588 0.65418184 27
14.282214 -4.8370414 0.57400846 35
nan nan nan 0
3.6604433 5.0418677 0.34397653 89
6.9930129 4.0179129 0.49045694 64
11.769238 1.1685026 0.65088481 28
14.310348 -4.785398 0.56912172 35
nan nan nan 0
3.6417625 5.0550046 0.34941354 89
6.9651361 4.0359235 0.49235642 67
11.710135 1.2059937 0.64991724 28
14.346956 -4.7392468 0.56460136 35
nan nan nan 0
3.6288743 5.0762415 0.35432991 89
6.9414558 4.0562592 0.49595559 68
7.6051888 0.81141776 0.42225325 18
14.369167 -4.688242 0.55951214 36
nan nan nan 0
3.6071761 5.0851817 0.35948732 90
6.9177184 4.0764737 0.49954423 68
7.5971284 0.83873075 0.42331162 18
14.362567 -4.6279125 0.55595368 36
nan nan nan 0
3.5825856 5.0899463 0.36434358 90
6.889636 4.0940199 0.50280911 68
7.5891204 0.86467105 0.42436826 19
14.384377 -4.5768132 0.55086863 36
nan nan nan 0
3.5466127 5.0782809 0.36691496 87
6.8615155 4.1114135 0.50605822 68
7.5809426 0.89189744 0.42409092 20
5.8825321 -1.8479849 0.22286321 25
nan nan nan 0
3.5136154 5.0705218 0.36974347 87
6.8335123 4.1287475 0.5065046 68
7.5925636 0.92149037 0.42358813 20
5.8893766 -1.8264461 0.2196347 25
nan nan nan 0
3.4411368 5.0050135 0.36830017 87
6.8095841 4.1484356 0.51004654 69
11.239935 1.4059848 0.62934089 29
5.9008813 -1.8063332 0.21765853 25
nan nan nan 0
3.3157191 4.860662 0.36193502 101
6.7856021 4.1680026 0.51357794 71
11.204999 1.4433451 0.62767673 29
5.9123187 -1.7861602 0.21567887 25
nan nan nan 0
3.4906986 5.1576786 0.38855195 86
6.7622972 4.1862688 0.51709867 71
11.145085 1.4771738 0.62658793 29
5.9236507 -1.7659169 0.21477455 25
nan nan nan 0
3.471581 5.1701546 0.3939867 86
6.7339797 4.2029567 0.52028185 71
11.080131 1.5099093 0.62520087 28
5.9397421 -1.7470348 0.21296062 25
nan nan nan 0
3.4524548 5.1826138 0.39833421 85
6.7056308 4.2194929 0.52344924 71
11.024975 1.5435728 0.62435275 28
5.9509759 -1.7266659 0.21096955 25
nan nan nan 0
3.4332433 5.194941 0.40376839 85
6.6814623 4.2385488 0.52693301 71
10.969829 1.5768679 0.62155294 28
5.9573002 -1.7048531 0.20988807 25
nan nan nan 0
3.4139853 5.2071924 0.40920225 82
6.6572433 4.2574849 0.53040618 68
10.904604 1.6083072 0.62011701 28
5.9731975 -1.6857414 0.20806016 25
nan nan nan 0
3.3974011 5.2235508 0.41496804 82
6.6329741 4.276299 0.53386879 67
10.859042 1.6422758 0.61978704 28
5.9889994 -1.6665261 0.20731018 25
nan nan nan 0
3.3779957 5.2356005 0.42149311 82
6.6084981 4.2948895 0.54007196 67
10.827962 1.6781923 0.62411571 28
6.0047059 -1.6472082 0.20764349 25
nan nan nan 0
3.358664 5.2477598 0.42475548 82
6.5801158 4.3108292 0.54041952 67
8.5292902 1.353959 0.4903926 248
6.0108066 -1.625217 0.20438327 25
nan nan nan 0
3.3338602 5.2512975 0.42950362 82
6.5514679 4.3264623 0.5448727 67
8.0758047 1.3123345 0.46602535 19
6.0167913 -1.6031935 0.20220974 25
nan nan nan 0
3.2931273 5.2293968 0.4321413 82
6.5270243 4.3447595 0.54828584 65
8.0314655 1.335362 0.46517169 19
6.0326047 -1.5826242 0.2014458 26
nan nan nan 0
3.1777282 5.0893803 0.42482129 82
6.5025334 4.3629346 0.55168849 62
7.9725404 1.35418 0.46344578 19
6.0432706 -1.5617709 0.19942841 26
nan nan nan 0
3.1483929 5.0837798 0.42758352 82
6.4821272 4.3837819 0.55543447 63
7.9183421 1.3748524 0.46058506 20
6.0586739 -1.5420845 0.19865659 26
nan nan nan 0
3.0956111 5.0397239 0.42810905 84
6.4583015 4.4006014 0.55881852 63
7.9033408 1.4021074 0.46141383 20
6.0692 -1.5210998 0.19663133 25
1.4306444 -1.1249977 -0.0060353368 22
3.2403684 5.3190074 0.45628551 78
6.4336648 4.4184294 0.5621919 63
7.922627 1.4355005 0.46425384 34
6.0844717 -1.5012473 0.19585167 25
1.4347554 -1.1197445 -0.0069882809 22
3.2250435 5.3335791 0.46317807 77
6.4103689 4.4337859 0.56827545 62
7.917583 1.4617207 0.46846962 54
6.0990949 -1.4834162 0.19725955 26
1.6402231 -1.2709124 -0.0086917141 39
3.2059603 5.3504095 0.46899191 75
6.3881021 4.4564018 0.57334977 59
7.8870478 1.4888474 0.4684183 63
6.1099286 -1.4600986 0.19522381 26
1.6413418 -1.2612674 -0.010115888 39
3.1835716 5.3574843 0.47405568 75
6.3633213 4.4738765 0.57668859 59
7.8568692 1.5129945 0.46975476 67
6.1250019 -1.43999 0.19443627 25
1.6340219 -1.2461438 -0.011118566 40
3.1586409 5.360168 0.47872669 75
6.3384972 4.4912286 0.58001679 59
7.8364978 1.5388801 0.4702695 67
6.1302719 -1.4175388 0.19333811 25
1.6345849 -1.237124 -0.012522658 69
3.1387618 5.3713465 0.48415589 76
6.3136301 4.5084581 0.58333445 59
7.8356185 1.5685556 0.47195813 67
6.1403642 -1.3961836 0.19129357 25
1.6433158 -1.2338364 -0.013629176 69
3.0088816 5.1926808 0.47232372 54
6.2886381 4.5255051 0.5879938 59
7.8444076 1.6002405 0.47423977 67
6.1698599 -1.379127 0.19094926 25
1.6558375 -1.2337737 -0.015137105 69
2.996408 5.2109127 0.47835407 54
6.2651887 4.5402412 0.59263879 59
7.8632483 1.6312631 0.47992304 67
6.1987715 -1.3640225 0.19281179 25
1.6518795 -1.2223265 -0.015422457 96
3.0319576 5.3220601 0.49389142 69
6.2425518 4.5621681 0.59765506 59
7.8809695 1.6679649 0.48282033 67
6.2091146 -1.3401896 0.19185495 25
1.6446705 -1.2068052 -0.016734028 97
3.0464878 5.3934307 0.50600451 69
6.217339 4.5787945 0.60362279 60
7.8943672 1.6996127 0.48824519 67
6.2188745 -1.3184596 0.19200589 25
1.640994 -1.1948794 -0.017360579 103
3.0483959 5.4433022 0.51511282 69
6.1929712 4.5942774 0.6082269 60
nan nan nan 0
6.2236977 -1.2956642 0.19089636 25
1.6455623 -1.1885642 -0.018423442 103
3.028161 5.4539638 0.52164578 69
6.1676803 4.6106572 0.61416084 62
7.9786968 1.7790642 0.50141424 63
6.2332683 -1.2738385 0.19215684 25
1.6539661 -1.1854337 -0.019179137 103
3.0103331 5.4689903 0.52751046 68
6.1465006 4.6300387 0.61779261 63
