# .PCD v0.7 - Point Cloud Data file format
VERSION 0.7
FIELDS x y z intensity
SIZE 4 4 4 4
TYPE F F F F
COUNT 1 1 1 1
WIDTH 1484
HEIGHT 1
VIEWPOINT 0 0 0 1 0 0 0
POINTS 1484
DATA ascii
5.4557009 1.1109666 -0.37078011 55
2.7111793 -0.60999626 -0.24801508 14
nan nan nan 0
2.3616974 3.9997828 0.012160568 40
5.0319829 3.5813339 -0.21352296 99
5.4695845 1.0929308 -0.37047106 58
2.7380717 -0.62710208 -0.24921118 5
nan nan nan 0
2.3686728 3.9782202 0.0072727841 39
5.0408702 3.5598969 -0.21765853 99
5.478385 1.0738235 -0.37177682 58
2.7261379 -0.63489372 -0.24735038 5
nan nan nan 0
2.4358706 4.0603876 0.0033056531 39
5.0490489 3.5393233 -0.22178705 99
5.4868717 1.0556117 -0.3740595 58
nan nan nan 0
nan nan nan 0
2.1880336 3.6142957 -0.0007374016 38
5.0549464 3.5132792 -0.22357641 100
5.4960322 1.0345126 -0.37341738 61
2.6876075 -0.64722222 -0.24185717 27
nan nan nan 0
2.169383 3.5554147 -0.0050885058 39
5.0635457 3.4918022 -0.22768907 100
5.5144405 1.0170643 -0.37539542 69
2.6659453 -0.65235263 -0.23915602 27
nan nan nan 0
2.1366441 3.4757829 -0.0092572179 39
5.074965 3.4749007 -0.23198305 101
6.2100835 1.1229661 -0.42358828 92
2.6540239 -0.65926296 -0.23781066 27
nan nan nan 0
2.1256576 3.4296708 -0.012676304 39
5.083467 3.4534237 -0.23393984 103
6.3074932 1.1167222 -0.42995051 255
2.64692 -0.66780782 -0.23547176 27
0.7018742 -0.5570969 -0.083759136 30
2.122308 3.3964028 -0.016776055 40
5.0918107 3.4318841 -0.2380365 103
8.2727451 1.4334123 -0.56502193 61
2.6299388 -0.6742751 -0.23323497 29
0.69987315 -0.55970204 -0.083133526 30
2.1225817 3.3666916 -0.020839134 42
5.1054063 3.4113235 -0.24232323 103
8.3176842 1.406831 -0.56918013 61
2.6176481 -0.68233413 -0.23143481 30
nan nan nan 0
2.1214838 3.3377707 -0.024849834 43
5.117733 3.3924942 -0.24660987 105
8.3721476 1.3829976 -0.57402706 61
2.6103528 -0.69065982 -0.23053734 30
nan nan nan 0
2.1202033 3.3089039 -0.028122248 46
5.1258864 3.3709211 -0.24855071 106
8.4018822 1.3562937 -0.574229 61
2.6078365 -0.70071936 -0.22865219 30
nan nan nan 0
2.1230161 3.2892306 -0.031431295 59
5.1327066 3.3510776 -0.25262776 107
8.8548775 1.3977224 -0.60642362 95
2.6055753 -0.70938432 -0.22770959 31
nan nan nan 0
2.1290135 3.2733879 -0.035440169 66
5.1070681 3.3077049 -0.2550227 107
7.2918987 1.1236334 -0.50168538 52
2.6029088 -0.71940494 -0.22676696 31
nan nan nan 0
2.1409752 3.2655299 -0.039529286 66
5.0019259 3.2124121 -0.25227278 107
nan nan nan 0
2.6002927 -0.72895086 -0.22629562 30
nan nan nan 0
2.1584189 3.2659669 -0.043730062 66
4.7860126 3.049026 -0.24478687 98
8.681736 1.2727189 -0.59972596 49
2.5975504 -0.7389515 -0.22535294 30
nan nan nan 0
2.1798098 3.2697227 -0.047326945 66
4.7854338 3.0217197 -0.24710383 100
8.6920338 1.2370595 -0.59853458 49
2.5995007 -0.75079882 -0.2238798 29
nan nan nan 0
2.2028992 3.2782598 -0.052393243 66
4.7920585 3.0013926 -0.25182021 103
8.1032743 1.1229806 -0.56200886 27
2.6015136 -0.76172167 -0.22429211 29
nan nan nan 0
2.2249463 3.2874675 -0.055429857 67
4.8019104 2.9854386 -0.25379395 103
8.0477304 1.0880958 -0.55647916 29
2.5989883 -0.77084231 -0.22239959 28
nan nan nan 0
2.249366 3.2949758 -0.059886977 80
4.813704 2.9660449 -0.25774133 103
7.9532018 1.0414107 -0.55104285 30
2.6007192 -0.7827276 -0.22186039 28
nan nan nan 0
2.2698922 3.2990117 -0.064305633 85
4.7477136 2.9014299 -0.25655636 103
7.8876877 1.0034406 -0.54624522 30
2.6074402 -0.79518443 -0.22172302 27
nan nan nan 0
nan nan nan 0
4.6717477 2.8337703 -0.25576499 69
7.8166218 0.96807051 -0.54247957 31
2.6142461 -0.80724478 -0.22157866 26
nan nan nan 0
3.0141215 4.315824 -0.094643228 40
nan nan nan 0
7.7359929 0.9279393 -0.53799891 31
2.6208568 -0.81981987 -0.22142731 24
0.61835933 -0.54958433 -0.066998288 26
3.0450125 4.3245873 -0.099708244 40
4.6979566 2.799433 -0.2607713 36
7.6654229 0.8882755 -0.53148568 31
2.6270473 -0.83385319 -0.2203069 23
0.62733626 -0.56208652 -0.06732706 25
3.0795259 4.3429384 -0.10501401 40
4.6941605 2.7761188 -0.26386425 36
7.5938816 0.85447448 -0.52766603 31
2.6338322 -0.84563094 -0.22013806 22
0.62911445 -0.56765121 -0.066986017 25
3.1273286 4.3762693 -0.11173144 40
4.6912599 2.7512453 -0.26598698 36
7.5475168 0.81992269 -0.52422172 32
2.6307881 -0.85530251 -0.21917245 19
0.6196869 -0.56327879 -0.065613322 25
3.1681819 4.3960261 -0.11823668 40
4.6977873 2.7297885 -0.26953599 36
7.5308127 0.78753382 -0.52416557 38
2.6320245 -0.86791152 -0.21811627 18
0.61012018 -0.55907214 -0.063965663 25
1.9143059 2.6377192 -0.073960707 32
4.6980391 2.7091351 -0.27188012 36
7.5233665 0.7615425 -0.52479476 38
2.6386619 -0.87981242 -0.21792996 18
nan nan nan 0
1.8855538 2.5781701 -0.075830922 29
4.9938784 2.8553929 -0.29241931 24
7.5311084 0.73312372 -0.5264616 37
2.6402142 -0.891096 -0.21734785 18
nan nan nan 0
1.9017736 2.5785604 -0.079423547 26
4.7753658 2.7039731 -0.28183946 36
7.5439229 0.70381272 -0.52715564 36
2.645999 -0.90541202 -0.21666119 18
nan nan nan 0
1.9141598 2.5755394 -0.08178775 11
4.7459712 2.6644042 -0.28143126 37
7.5614476 0.6775018 -0.5268718 36
0.97515273 -0.33767691 -0.07922408 84
nan nan nan 0
nan nan nan 0
4.733674 2.6347294 -0.28486806 37
7.573657 0.64929146 -0.53154433 36
0.95038414 -0.33300605 -0.077310458 84
nan nan nan 0
nan nan nan 0
4.7257252 2.6076643 -0.28570196 37
7.5811415 0.62195122 -0.52923793 36
0.93975163 -0.33333737 -0.075848907 85
nan nan nan 0
nan nan nan 0
4.7219787 2.5830657 -0.2877273 38
4.2167997 0.33038831 -0.29502922 29
0.9291752 -0.3334249 -0.074573532 85
nan nan nan 0
nan nan nan 0
4.7224588 2.5608852 -0.29094401 40
4.1931667 0.31234199 -0.29328966 31
0.93265808 -0.33853832 -0.074603833 84
nan nan nan 0
nan nan nan 0
4.7224402 2.5395834 -0.29321077 56
4.1593013 0.29595354 -0.29158205 32
0.94085681 -0.345236 -0.075003795 84
nan nan nan 0
nan nan nan 0
4.728054 2.5181863 -0.29574263 70
4.1355729 0.27758449 -0.28983811 34
0.9535225 -0.354233 -0.075590655 83
nan nan nan 0
nan nan nan 0
4.7414827 2.5030739 -0.29976147 84
4.1166463 0.26044014 -0.2891629 34
0.95691019 -0.35948828 -0.075604387 82
nan nan nan 0
nan nan nan 0
4.7584629 2.4918959 -0.30313224 84
4.0876145 0.24499695 -0.28706503 34
0.96034825 -0.36461025 -0.07543534 82
nan nan nan 0
nan nan nan 0
4.7762837 2.4789639 -0.30651331 84
4.053576 0.2280495 -0.28532603 34
0.96834087 -0.37171122 -0.075805664 82
nan nan nan 0
nan nan nan 0
4.7900634 2.4628148 -0.30961788 90
4.0295181 0.21117809 -0.28357345 34
0.97165799 -0.37707639 -0.075624399 81
nan nan nan 0
3.9435914 4.8821135 -0.22683646 41
4.7997656 2.4434927 -0.31243798 90
4.000442 0.19355465 -0.2814703 34
0.97473609 -0.38297644 -0.075620666 81
nan nan nan 0
3.9627857 4.8727303 -0.23249809 47
4.812151 2.4297383 -0.31555021 92
3.9810822 0.17938738 -0.28076375 34
0.98276871 -0.38989952 -0.075787283 81
nan nan nan 0
3.9979975 4.8759108 -0.24002609 47
4.8216681 2.4103026 -0.31931359 92
3.9518979 0.16148807 -0.27865538 34
0.98584867 -0.39570913 -0.075773962 81
nan nan nan 0
4.0681086 4.9279966 -0.24772066 47
4.8300023 2.3934324 -0.32025442 101
3.9275873 0.14745027 -0.27552646 33
0.98914438 -0.40104666 -0.0751983 81
nan nan nan 0
4.1179218 4.9512625 -0.25640145 47
4.8295293 2.3711901 -0.32435662 101
3.908066 0.1323753 -0.27549282 33
0.99689841 -0.40845135 -0.075901084 81
nan nan nan 0
4.1487598 4.9513154 -0.26170689 47
4.8381362 2.3534482 -0.32529563 101
3.8886516 0.11677109 -0.27340823 33
1.000064 -0.41403559 -0.07530795 81
nan nan nan 0
4.2103028 4.9839845 -0.2723093 47
4.8517838 2.3360488 -0.3302967 105
3.8491061 0.10012013 -0.27194813 30
0.99840605 -0.41805181 -0.075119033 81
nan nan nan 0
4.2622509 5.0116711 -0.28034428 47
4.8548431 2.3177221 -0.33280745 107
3.8294871 0.086234502 -0.27053908 30
0.99238247 -0.41960704 -0.074208722 81
nan nan nan 0
4.2608967 4.9730301 -0.28592506 38
4.8635488 2.2989888 -0.33562422 108
3.8896177 0.073326245 -0.27476624 30
0.99544883 -0.42521107 -0.074174434 81
nan nan nan 0
4.2169175 4.8853455 -0.28741318 30
4.8763018 2.2831888 -0.33875486 112
3.8798862 0.05891813 -0.27406171 30
0.99849969 -0.43084851 -0.073946863 81
0.579427 -0.63366455 -0.048306216 29
4.1674385 4.7890229 -0.28938982 27
4.894321 2.2677162 -0.34220716 126
3.8950531 0.043509975 -0.2751185 30
1.0012937 -0.43703824 -0.073714048 81
0.57691234 -0.63602251 -0.04740702 29
4.1173372 4.6998849 -0.28919825 24
4.9152541 2.2576468 -0.34598902 132
3.950043 0.030334748 -0.2789934 22
0.999874 -0.44037172 -0.073141992 81
nan nan nan 0
4.0682364 4.6096401 -0.29101324 24
4.9328051 2.2428119 -0.34946468 144
3.9750655 0.015957022 -0.28075475 22
0.99827653 -0.44404387 -0.072760612 81
nan nan nan 0
4.0037537 4.5063667 -0.28954801 24
4.9492021 2.2304921 -0.35200322 154
3.9700611 0.00069290638 -0.28109539 21
1.001228 -0.44975963 -0.072518162 81
nan nan nan 0
3.9483047 4.4081898 -0.29046774 24
4.9716177 2.2166266 -0.35582402 162
3.9551232 -0.013806039 -0.27934569 21
1.0040715 -0.45567831 -0.072270453 81
nan nan nan 0
3.8966022 4.3200278 -0.29064238 24
5.0015874 2.210135 -0.36031789 162
3.9301181 -0.026751878 -0.27758434 21
1.0116622 -0.46317512 -0.072341911 80
nan nan nan 0
3.8148518 4.1983514 -0.28835794 21
5.0601444 2.2128265 -0.36682603 168
3.9050503 -0.041576721 -0.27582303 17
1.0145212 -0.46898949 -0.072081111 80
nan nan nan 0
3.6547236 3.992626 -0.27988213 27
5.1779804 2.2417853 -0.37674847 168
3.9148457 -0.056031924 -0.27652755 17
1.0172682 -0.47500852 -0.071815066 80
nan nan nan 0
3.6082387 3.9129503 -0.2798796 27
5.2593451 2.2541583 -0.38507435 168
3.914614 -0.070380174 -0.27652755 19
1.0155542 -0.47874975 -0.071227208 80
nan nan nan 0
3.6393452 3.9177725 -0.28679225 28
5.5984464 2.3740935 -0.41243052 106
3.7746959 -0.082364157 -0.26666415 19
1.0183321 -0.48462909 -0.070953287 80
nan nan nan 0
3.7114999 3.9661951 -0.29608485 28
5.6115103 2.3554051 -0.41595545 106
3.7145371 -0.094673611 -0.26243699 17
1.0210805 -0.49053517 -0.070674114 80
nan nan nan 0
3.7703512 3.9996004 -0.30441943 28
5.6199713 2.3347661 -0.41807976 106
3.7091799 -0.10814209 -0.26208472 17
1.0282025 -0.49882483 -0.070698425 80
nan nan nan 0
3.8569524 4.0615392 -0.31609139 29
5.6327643 2.3159094 -0.42373738 106
3.7136765 -0.12254646 -0.26308551 17
1.0308604 -0.50479019 -0.070806824 80
nan nan nan 0
3.9303207 4.1085367 -0.32485011 30
5.6415467 2.2942362 -0.42480034 106
3.7232623 -0.13652582 -0.26249126 17
1.0290585 -0.50859231 -0.069805138 80
0.58807015 -0.71287894 -0.04002535 29
4.0213151 4.1729298 -0.33719358 32
5.649641 2.2734323 -0.429052 106
3.7276287 -0.15036869 -0.2641449 20
1.0271982 -0.51236606 -0.069604792 80
nan nan nan 0
4.135994 4.2561069 -0.34946901 72
5.6632857 2.2525504 -0.4304671 106
3.7420061 -0.16665138 -0.26389682 20
1.025187 -0.51651245 -0.068603039 80
nan nan nan 0
4.2909198 4.3832726 -0.36872005 119
5.6761837 2.2324755 -0.43614233 106
3.8011053 -0.18324514 -0.26877773 20
1.0276663 -0.52271873 -0.068498857 80
nan nan nan 0
4.0215025 4.0808969 -0.34841865 75
5.6834126 2.2135849 -0.4382714 106
3.770591 -0.19430897 -0.26666415 20
1.0348418 -0.53069532 -0.068482995 80
nan nan nan 0
4.0362172 4.0659127 -0.35341838 75
5.6959982 2.1944768 -0.44076049 105
3.7598572 -0.20823389 -0.26595962 20
1.0373546 -0.53679508 -0.068165347 80
nan nan nan 0
4.209661 4.209661 -0.37246734 139
5.7041659 2.1725073 -0.44395655 103
3.7192836 -0.21966331 -0.26249126 20
1.0354116 -0.54060996 -0.067553766 80
nan nan nan 0
4.5187616 4.4857578 -0.4039374 109
5.7119451 2.1515312 -0.44608718 104
3.7084978 -0.23266907 -0.26178846 20
1.0378709 -0.54674429 -0.06722825 80
3.6247771 -4.6311669 -0.2156482 24
4.5029335 4.4373965 -0.40660542 75
5.724246 2.1322403 -0.44965011 104
3.6926925 -0.24591571 -0.26008835 20
1.0402128 -0.55309087 -0.066691868 80
3.5956316 -4.6287837 -0.20980051 89
4.5247941 4.4217329 -0.41244742 75
5.7326112 2.1091902 -0.45178229 104
3.6618237 -0.2586287 -0.2579852 20
1.0468115 -0.56200129 -0.066634953 80
3.5497074 -4.6077247 -0.20209989 92
4.5550342 4.4187622 -0.41928679 97
5.7404451 2.0870821 -0.45498058 104
3.6360261 -0.27020341 -0.25559625 20
1.049175 -0.56823379 -0.066081956 80
3.5177464 -4.6010213 -0.19516681 92
4.565805 4.3999157 -0.42449075 98
5.7518759 2.0696688 -0.4574858 105
3.6002517 -0.28018486 -0.25314867 30
1.0516973 -0.57411849 -0.065731086 80
3.4904828 -4.5968752 -0.1894564 92
4.5650773 4.364007 -0.42943451 98
5.7598352 2.0464551 -0.46175325 105
3.5046036 -0.28689927 -0.24711899 27
1.0537767 -0.58075649 -0.065584965 81
3.4721 -4.61098 -0.18441939 92
4.568399 4.3382807 -0.43391493 98
5.7714186 2.0279095 -0.46533301 105
3.6079962 -0.30741143 -0.25447997 27
1.0605013 -0.58929813 -0.065494001 81
3.4628713 -4.6306 -0.17969288 92
4.583992 4.3212457 -0.43941265 98
5.7786584 2.0066891 -0.46746835 105
3.636642 -0.32392186 -0.25594589 22
1.067075 -0.5980801 -0.065392569 80
3.4549215 -4.6554494 -0.17408788 90
nan nan nan 0
5.7908821 1.9860501 -0.46998635 104
3.6603074 -0.33955643 -0.2570526 18
1.0735986 -0.60691822 -0.065280654 80
3.4438515 -4.6762505 -0.16932008 90
nan nan nan 0
5.8026881 1.9663594 -0.47250777 107
3.6788974 -0.35488558 -0.25844771 16
3.7304018 -2.1269209 -0.22429512 15
nan nan nan 0
nan nan nan 0
5.8096209 1.9449996 -0.47571567 107
3.6626632 -0.36751938 -0.25675893 16
3.7140253 -2.1356592 -0.2215303 15
2.0334845 -2.8039937 -0.09372583 29
nan nan nan 0
5.81673 1.9225732 -0.47999269 106
3.6711693 -0.38196895 -0.25809893 17
3.7231407 -2.159966 -0.2210606 15
0.60726136 -0.84384972 -0.027405476 34
nan nan nan 0
5.795146 1.891907 -0.47977734 103
3.7044585 -0.39916238 -0.2605404 17
nan nan nan 0
0.58384782 -0.81761855 -0.025431095 38
nan nan nan 0
5.7591863 1.8568368 -0.47835895 85
3.7525146 -0.41892251 -0.26336923 16
nan nan nan 0
0.57797235 -0.8156957 -0.024257697 39
nan nan nan 0
5.732707 1.8240294 -0.47980073 81
3.8301878 -0.44181299 -0.26960877 14
nan nan nan 0
0.57211345 -0.8137331 -0.023441965 39
nan nan nan 0
5.7060685 1.7925493 -0.47701812 79
3.8584003 -0.4594034 -0.26966697 14
nan nan nan 0
0.55770302 -0.79944855 -0.021779895 40
3.8215644 3.3691621 -0.39559102 14
5.2124567 1.616516 -0.43908909 80
3.8615117 -0.47481817 -0.27069217 14
4.1364012 -2.5021343 -0.23474538 12
0.55193472 -0.79739231 -0.020821923 40
3.8117535 3.3345885 -0.39680436 16
5.2232437 1.5979028 -0.44139677 80
3.8943841 -0.49335629 -0.27312148 14
3.8459322 -2.3457246 -0.2155951 22
0.54619044 -0.79530662 -0.019704269 40
3.8123968 3.3105628 -0.40003911 19
5.2336879 1.5801436 -0.44370785 75
3.9173276 -0.51085782 -0.27416718 18
4.594182 -2.8263595 -0.25531626 16
0.54609811 -0.80145097 -0.018790783 40
3.8015876 3.2768135 -0.40204966 20
5.2443447 1.5614139 -0.44602242 71
3.8708918 -0.51992577 -0.27037001 18
4.5754533 -2.838007 -0.25108466 120
0.54330796 -0.80336821 -0.017775182 39
3.8094635 3.2593429 -0.40690073 20
5.249732 1.5420936 -0.44984236 71
3.859031 -0.53273904 -0.27035931 18
nan nan nan 0
0.54036659 -0.80536419 -0.017098103 39
3.8141353 3.2380569 -0.40958485 21
5.259984 1.5241853 -0.45216373 64
3.7780802 -0.53568232 -0.26415458 17
3.5702796 -2.2509363 -0.19239527 27
0.53742075 -0.80735385 -0.016082471 39
3.8257034 3.2238243 -0.41395089 23
5.2704368 1.5053023 -0.45448849 64
3.780977 -0.55091095 -0.26383302 15
3.5536864 -2.2587197 -0.18900026 27
0.5344671 -0.80933177 -0.015066821 39
4.0282521 3.3693364 -0.44006565 229
5.2804079 1.4872394 -0.45873165 63
3.8282199 -0.57213128 -0.26795289 15
3.5412335 -2.2690699 -0.18730798 36
0.53150409 -0.81129593 -0.014220432 39
4.7571712 3.9494793 -0.52245849 100
5.2907262 1.4682426 -0.4610649 40
3.8705184 -0.59296387 -0.27037719 15
3.5371709 -2.284797 -0.18532561 37
0.52581036 -0.80905855 -0.013136687 39
4.7834826 3.9403951 -0.52912998 121
5.3007221 1.4501134 -0.46340162 39
3.8978262 -0.61247438 -0.2717551 15
3.5372529 -2.3032677 -0.1828185 37
0.5174306 -0.80258739 -0.012000567 39
4.7320437 3.8689966 -0.52616644 122
5.3107338 1.4319515 -0.46478176 39
3.895602 -0.62676406 -0.27106646 15
3.5326645 -2.3196445 -0.18008447 37
0.51179725 -0.80027503 -0.011108767 39
4.6142573 3.744559 -0.51780969 132
5.3255076 1.4140226 -0.46947056 39
3.7997611 -0.62564003 -0.26455539 27
3.5325227 -2.3381257 -0.17903149 38
0.50618744 -0.79793155 -0.010225684 39
4.5112982 3.6336627 -0.50883269 116
5.3304958 1.3944526 -0.47139391 40
3.7531061 -0.63276917 -0.26080689 27
3.5323439 -2.3566713 -0.17648929 38
0.5034045 -0.79970217 -0.0092361355 39
4.4314919 3.5414135 -0.50328285 115
5.3404756 1.375176 -0.47374517 40
3.731143 -0.64313912 -0.25877884 27
3.5362206 -2.3780336 -0.17413718 38
0.50577092 -0.81003165 -0.0083338413 39
4.3464842 3.4474516 -0.49804604 106
5.3452387 1.3555317 -0.47663254 69
4.0038261 -0.70526206 -0.27858141 18
3.5358019 -2.3966186 -0.17305446 38
0.50543469 -0.8161366 -0.007539745 38
4.0653591 3.2002714 -0.46812725 16
5.3548422 1.3370976 -0.47898978 70
3.9471333 -0.71091259 -0.27412146 18
3.5353434 -2.4152663 -0.17047016 38
0.50506079 -0.82225019 -0.0065684956 38
4.0733047 3.1812696 -0.47308931 16
5.359611 1.3164467 -0.48284283 74
3.9150646 -0.71996152 -0.27207577 22
3.5388608 -2.4367414 -0.16956711 38
0.507249 -0.83264029 -0.0057857321 37
4.1082854 3.1844165 -0.47945288 16
5.3691597 1.2979444 -0.48424271 74
3.8781261 -0.7278735 -0.26900047 22
3.5464208 -2.4611564 -0.16734217 38
0.50936794 -0.84305757 -0.0048135985 37
4.1313672 3.1781363 -0.48628923 32
5.3834648 1.2795438 -0.48897913 74
3.8507607 -0.73805511 -0.26798442 22
3.5579195 -2.4885066 -0.16603722 38
nan nan nan 0
4.1749272 3.186204 -0.49367157 33
5.3928847 1.2609183 -0.49038592 76
3.8138509 -0.7454831 -0.26424131 22
3.5692878 -2.5159898 -0.16394392 38
0.9913221 -1.667587 -0.0057560871 30
4.2694893 3.2336774 -0.50910711 33
5.4022055 1.2412401 -0.49469674 76
3.7326417 -0.74450058 -0.25947833 22
3.584084 -2.547076 -0.16353458 38
0.98774493 -1.6755202 -0.0040735956 29
4.9454622 3.7172086 -0.59244204 122
5.4114914 1.22251 -0.49610949 76
3.852145 -0.78302765 -0.26729414 21
3.5951278 -2.5748079 -0.16137661 38
0.98664552 -1.6877651 -0.0020472708 29
4.9671783 3.7037694 -0.59988409 122
5.4204578 1.2036718 -0.5004313 77
3.9225221 -0.81231523 -0.27238223 16
3.6424582 -2.628957 -0.16157743 38
0.97293079 -1.6783937 -0.00033859385 29
4.9762969 3.6822658 -0.60480475 122
5.4296484 1.1838548 -0.50378996 77
3.9681361 -0.83766413 -0.27648216 16
3.7581143 -2.7334373 -0.16552696 255
0.92192215 -1.6039194 0.0012915435 122
4.9852352 3.6606801 -0.61079574 122
5.4433432 1.165958 -0.50857931 77
3.9845474 -0.85639536 -0.27784246 16
5.2151213 -3.8224857 -0.22805679 61
nan nan nan 0
4.9980993 3.6420047 -0.6172722 122
5.4475188 1.1449935 -0.51149398 79
2.7094514 -0.59273773 -0.18956658 26
5.2172494 -3.8535202 -0.2253657 40
0.91041875 -1.610471 0.0045203976 131
5.0076647 3.6196191 -0.62108946 125
5.4564676 1.1260079 -0.51292396 79
2.721827 -0.60640562 -0.18961602 11
5.2032156 -3.8727095 -0.22083749 40
nan nan nan 0
5.0162349 3.5978966 -0.62813175 125
5.4651008 1.1059287 -0.51922166 79
2.7194886 -0.61635542 -0.19107608 7
0.87949443 -0.65962327 -0.03723821 79
nan nan nan 0
5.0206547 3.5732713 -0.63464868 124
5.4882026 1.08968 -0.52595907 74
2.7024558 -0.62341428 -0.19101876 7
0.8530432 -0.64491749 -0.036035974 79
nan nan nan 0
5.0360422 3.584223 -0.6464079 128
5.4823198 1.0885119 -0.53622288 82
2.6874804 -0.61995965 -0.19576497 7
0.84900051 -0.64186114 -0.037911009 80
nan nan nan 0
5.0142536 3.5978014 -0.64429075 127
5.4682617 1.1065683 -0.53818917 79
2.7236123 -0.61778975 -0.20068029 7
0.88328379 -0.6627062 -0.040684029 76
0.89587927 -1.6128879 0.0041861683 190
5.0053363 3.6192665 -0.64157587 125
5.4590979 1.1265508 -0.53770906 79
2.715986 -0.60560179 -0.20190629 11
5.2058282 -3.8760662 -0.24593052 40
nan nan nan 0
4.9956923 3.6415858 -0.63885558 122
5.4500618 1.145528 -0.53722894 79
2.7133162 -0.59407949 -0.20299882 26
5.2030458 -3.8458366 -0.2519488 40
0.9248994 -1.6367531 -0.00065624376 131
4.986589 3.6630137 -0.63612992 122
5.4406652 1.1653844 -0.53771996 77
3.6464481 -0.78439385 -0.27521285 23
5.2168908 -3.8265827 -0.25872415 40
0.92813098 -1.6291683 -0.002945242 131
4.9773059 3.6843572 -0.63447976 123
5.4314947 1.1842574 -0.53723902 77
3.6345215 -0.76790154 -0.27605411 23
3.6715593 -2.6724424 -0.18636198 39
nan nan nan 0
4.963388 3.7036395 -0.63123715 123
5.4170985 1.2029259 -0.53724557 77
3.6078296 -0.7484591 -0.27640331 23
3.6244733 -2.6179011 -0.18817389 38
0.96761584 -1.6698964 -0.008084341 30
4.9420915 3.7160254 -0.62698567 122
5.4077992 1.2216758 -0.53676373 76
3.6154201 -0.73556548 -0.27870914 24
3.6014006 -2.5812027 -0.19113201 38
0.99138129 -1.6965456 -0.010974573 29
4.9161534 3.7261569 -0.62224257 117
5.3984351 1.2403738 -0.53628194 76
3.6325674 -0.72519928 -0.28242517 28
3.5862477 -2.550498 -0.19444762 38
0.99475211 -1.6887538 -0.013341193 29
nan nan nan 0
5.3888774 1.2599813 -0.53483421 76
3.6009047 -0.70516413 -0.28040481 28
3.5709729 -2.519978 -0.19617467 38
0.98816049 -1.6635904 -0.015197298 30
4.1316977 3.1806867 -0.51952541 16
5.3793812 1.2785733 -0.5343532 76
3.5886331 -0.68911326 -0.28117523 26
3.5595582 -2.4924295 -0.19960427 38
0.50611222 -0.84498245 -0.0089394534 37
4.1006393 3.1807818 -0.5134238 16
5.3697748 1.2980932 -0.53194392 74
nan nan nan 0
3.5480454 -2.4650373 -0.20147331 38
0.50919986 -0.84311181 -0.010142801 37
4.0656419 3.1775703 -0.50776857 16
5.3601489 1.3165787 -0.5314647 74
nan nan nan 0
3.5404615 -2.4405773 -0.20429431 38
0.50693369 -0.83277673 -0.011230945 37
4.0379834 3.1810045 -0.50311852 16
5.3501344 1.3359221 -0.53194791 71
nan nan nan 0
3.5368383 -2.4190044 -0.20806979 38
0.50997496 -0.83090085 -0.012422045 38
4.0177293 3.1912692 -0.49766698 30
5.3400846 1.3562087 -0.52954459 70
nan nan nan 0
3.5339687 -2.3962765 -0.21106845 38
0.50803328 -0.82033259 -0.013473503 38
3.9996219 3.1985745 -0.49312639 30
5.3354969 1.3748869 -0.52762133 69
nan nan nan 0
3.5293756 -2.3761153 -0.21255562 38
0.50545043 -0.8101477 -0.01433385 39
3.995261 3.2203166 -0.49139801 27
5.3256063 1.3931736 -0.52714473 68
nan nan nan 0
3.5295694 -2.357492 -0.21650159 38
0.50308305 -0.79981071 -0.015338153 40
4.0146742 3.2603109 -0.49069798 23
5.3155851 1.4123812 -0.52474833 68
3.1178472 -0.51447916 -0.25147304 14
3.5338964 -2.341697 -0.21920656 38
0.50318646 -0.79381335 -0.016241226 40
4.0512433 3.3182666 -0.49409571 22
5.3050671 1.4324104 -0.5242734 68
3.1640439 -0.50906354 -0.2567209 14
3.5347288 -2.3218827 -0.22311902 37
0.50904965 -0.79597872 -0.017646872 39
4.0750499 3.3604064 -0.49463546 22
5.2953219 1.4496297 -0.52284026 68
3.4955301 -0.55051106 -0.28408858 21
3.534348 -2.3040123 -0.22480129 37
0.51438516 -0.79847544 -0.018569119 39
4.1126857 3.4168432 -0.49789646 22
5.2851772 1.4676963 -0.52236629 68
3.5812128 -0.54992175 -0.29278782 21
3.5383768 -2.2882025 -0.22894803 37
0.5200181 -0.80075765 -0.019833369 39
3.8288329 3.2059457 -0.4606238 34
5.275147 1.4857575 -0.5199793 65
3.5880823 -0.53752303 -0.29382381 22
3.5424018 -2.2724359 -0.23161498 36
0.52841365 -0.80719316 -0.021051362 39
3.8162382 3.2215478 -0.45626569 23
5.2643518 1.5065459 -0.51664001 65
3.5605206 -0.51878911 -0.29265818 23
3.5513582 -2.25811 -0.23455311 26
0.53424847 -0.80930787 -0.022345219 39
3.8057761 3.2343905 -0.45277897 21
5.2594132 1.52402 -0.51568437 65
3.5523915 -0.5049476 -0.29247373 23
3.5797949 -2.2595558 -0.23889972 26
0.53691602 -0.80751187 -0.023360716 38
3.8010728 3.2556124 -0.45106146 20
5.2487469 1.5427995 -0.51521552 65
3.5442445 -0.4905436 -0.29291028 23
4.0321279 -2.5244484 -0.272632 18
0.5426386 -0.80966634 -0.024671957 38
3.8007822 3.2795899 -0.44715106 19
5.2434006 1.5621291 -0.51139605 65
3.5164366 -0.47356614 -0.28984329 23
4.0370317 -2.506969 -0.27400473 18
0.54279476 -0.80351573 -0.025222398 39
3.7964888 3.3002374 -0.44452646 18
5.2326837 1.5808369 -0.50997669 75
3.4439609 -0.45034888 -0.28555569 23
3.939698 -2.4265628 -0.27165481 22
0.54290289 -0.79735965 -0.0264393 40
3.8107717 3.3372533 -0.44495514 16
5.2220936 1.5985478 -0.50951219 80
3.4948723 -0.44398406 -0.29149729 23
3.9441023 -2.4093804 -0.27539515 22
0.54863101 -0.79945815 -0.027760904 40
nan nan nan 0
5.681756 1.7642322 -0.55295259 62
3.5163581 -0.43237749 -0.29376483 23
3.8724561 -2.3443189 -0.27290484 23
0.55167979 -0.79732132 -0.028776255 40
nan nan nan 0
5.6994948 1.7915772 -0.55318081 62
3.4336851 -0.41004997 -0.28734446 23
3.8419461 -2.3075616 -0.27332571 24
0.55716044 -0.79956263 -0.029945139 40
nan nan nan 0
5.7118669 1.8184963 -0.55502474 80
3.4746115 -0.40202627 -0.29248831 22
3.8030093 -2.2652497 -0.27384064 26
0.56868225 -0.80975366 -0.031614751 39
nan nan nan 0
5.7476716 1.8542318 -0.55706549 85
3.4810305 -0.38922977 -0.29351625 22
3.7810447 -2.2334321 -0.2747454 26
0.57740092 -0.81579435 -0.03298074 39
nan nan nan 0
5.7884431 1.8908366 -0.55846959 103
3.3734529 -0.36468717 -0.28433084 23
3.7761629 -2.2119193 -0.27610022 22
nan nan nan 0
nan nan nan 0
5.8049607 1.9209311 -0.55861843 106
3.3598506 -0.35076317 -0.28366789 23
3.7150402 -2.157867 -0.27406245 22
2.032896 -2.8280323 -0.12162474 29
nan nan nan 0
5.8073239 1.9453577 -0.55952823 107
3.3560674 -0.33734655 -0.28501561 23
3.7356865 -2.1515868 -0.27877957 15
3.394495 -4.6858664 -0.21014732 88
nan nan nan 0
5.7958074 1.9651556 -0.55480099 107
3.3523715 -0.32456833 -0.2840068 23
1.0702865 -0.61097586 -0.080127589 80
3.4233434 -4.6894159 -0.21492665 88
4.6104822 4.3219657 -0.5095641 48
5.7829075 1.9878284 -0.55328226 105
3.3535485 -0.31109929 -0.28518245 23
1.0726568 -0.60663289 -0.081418112 80
3.4441047 -4.6800146 -0.22322512 90
4.5782585 4.3203712 -0.50316024 48
5.7717614 2.0054228 -0.55069888 105
3.3644891 -0.30027264 -0.28661573 23
1.0702746 -0.60061008 -0.081731103 80
3.4535387 -4.6603813 -0.22790322 92
4.5518713 4.3271198 -0.49648458 81
5.7642899 2.0276656 -0.54749948 105
3.4052281 -0.29133233 -0.2905941 27
1.0593526 -0.58938599 -0.081369132 81
3.461484 -4.635489 -0.23337281 92
4.5578313 4.3646994 -0.49444324 98
5.7521272 2.0471091 -0.54705328 105
3.4509084 -0.28189728 -0.2956152 27
1.0570625 -0.58304852 -0.082298495 81
3.4722695 -4.6145563 -0.24002542 92
4.569983 4.4100995 -0.49313405 98
5.7447653 2.0682428 -0.54492199 105
3.3723996 -0.26304477 -0.28940007 24
1.0547777 -0.57675636 -0.082587883 80
3.4890056 -4.6015959 -0.24607286 92
4.5433712 4.4166927 -0.48644352 97
5.7323699 2.0886784 -0.54128313 104
3.3286281 -0.2473598 -0.28556412 23
1.0525608 -0.57030511 -0.082872026 80
3.5057161 -4.5886049 -0.25111219 92
4.509644 4.4161696 -0.47902197 75
5.7248526 2.1097395 -0.5391534 104
3.3344729 -0.2349236 -0.28657377 23
1.0501986 -0.56405586 -0.083358981 80
nan nan nan 0
4.5079217 4.4469662 -0.47500974 75
5.7169733 2.1318042 -0.53595877 104
3.3253706 -0.22203676 -0.2857196 24
1.0478176 -0.55783844 -0.083631754 80
nan nan nan 0
4.1877637 4.1615334 -0.43666142 139
5.7092962 2.1528094 -0.53382891 104
3.311233 -0.20832513 -0.2850174 24
1.0409815 -0.5493117 -0.083750702 80
nan nan nan 0
4.0774903 4.0817628 -0.42368293 75
5.6968002 2.1719792 -0.53232902 103
3.3019297 -0.19559243 -0.28531614 24
1.0429226 -0.54545856 -0.084777817 80
nan nan nan 0
4.0515137 4.0870252 -0.41756248 75
5.6886773 2.1939373 -0.52913672 103
3.2976005 -0.18320982 -0.28546286 24
1.0405419 -0.53913528 -0.085032217 80
nan nan nan 0
4.5089993 4.5819874 -0.46080098 111
5.6807699 2.2148395 -0.52700835 103
3.2883301 -0.17003216 -0.28460172 26
1.0380353 -0.53301966 -0.085281372 80
nan nan nan 0
4.4715433 4.577363 -0.45307207 111
5.6682348 2.2339199 -0.52338785 105
3.2740045 -0.15726171 -0.28331006 26
1.0310402 -0.52466136 -0.085360132 80
nan nan nan 0
4.4585366 4.5976405 -0.44671878 111
5.6551571 2.253891 -0.52083486 105
3.2795107 -0.14490698 -0.28431356 29
1.0284641 -0.5186137 -0.085595302 80
0.57265675 -0.70565999 -0.046991277 31
4.4315457 4.6034489 -0.44009897 111
5.6424899 2.2728434 -0.51722366 105
3.3049061 -0.13389425 -0.28647074 31
1.0259469 -0.51241285 -0.085825235 80
0.58152884 -0.71124882 -0.048469774 30
4.4080148 4.6127234 -0.43384421 111
5.6339712 2.294594 -0.5140385 105
3.3352427 -0.1228807 -0.28905931 33
1.0277777 -0.50862914 -0.086425677 80
nan nan nan 0
4.3776031 4.6146441 -0.42693684 109
5.625771 2.3153303 -0.51085323 105
3.3705406 -0.11122343 -0.29207936 35
1.0295942 -0.50483871 -0.087026104 80
nan nan nan 0
4.3464274 4.6171575 -0.42006391 109
5.6174116 2.3360023 -0.50872964 105
3.4256449 -0.10047395 -0.29742324 35
1.0268985 -0.49885663 -0.087444775 80
nan nan nan 0
3.9038608 4.1775985 -0.37475991 171
5.6038885 2.3556578 -0.50725198 105
3.5354507 -0.090109177 -0.30816838 30
1.0242587 -0.4927223 -0.087856449 80
nan nan nan 0
3.7360444 4.0275049 -0.35525036 30
5.5954609 2.3762848 -0.50406903 104
3.5407372 -0.077259161 -0.30860242 30
1.0215021 -0.48679391 -0.088261113 80
nan nan nan 0
3.6336243 3.9460044 -0.34124398 28
5.582376 2.3949163 -0.50047541 104
3.5409966 -0.064281188 -0.30860242 30
1.0187299 -0.48089898 -0.088462159 80
nan nan nan 0
3.5722013 3.9079483 -0.33217961 28
5.573379 2.4164374 -0.49729472 106
3.5511785 -0.05082687 -0.3094705 30
1.0159283 -0.47503099 -0.08865796 80
nan nan nan 0
3.5178053 3.8768785 -0.32385436 27
5.5646429 2.436918 -0.49517426 106
3.5613024 -0.037916869 -0.31033856 30
1.0177025 -0.47110701 -0.089245163 80
nan nan nan 0
3.4570355 3.8380797 -0.31412309 27
5.5559106 2.4574015 -0.49199343 106
3.581346 -0.024377825 -0.31207475 30
1.0103186 -0.4632 -0.089033842 80
nan nan nan 0
3.4098597 3.8137207 -0.30662385 27
5.546669 2.4788215 -0.48881242 105
3.5963545 -0.011298318 -0.31337684 30
1.0074289 -0.45741412 -0.089213915 80
nan nan nan 0
3.356277 3.7815948 -0.29862183 27
5.5423212 2.5012896 -0.48602968 105
3.6112609 0.0006302839 -0.31530929 30
1.0044461 -0.45183748 -0.089196518 81
nan nan nan 0
3.3002894 3.7447605 -0.29130492 23
5.5295372 2.5176246 -0.48457089 107
3.6311004 0.014576251 -0.31768268 30
1.0014718 -0.44609341 -0.089749672 81
nan nan nan 0
3.3169832 3.7902939 -0.28865236 20
5.5206542 2.5380499 -0.47926864 107
3.6859238 0.028306419 -0.32118958 30
1.0030856 -0.44241348 -0.089941017 81
nan nan nan 0
3.5088091 4.0406942 -0.30107129 22
5.511095 2.5593343 -0.47608712 107
3.715673 0.042803373 -0.32379383 30
1.0001668 -0.43654639 -0.090103604 81
0.579656 -0.63949573 -0.057176284 29
3.5169623 4.0801954 -0.29833657 22
5.5019026 2.5796218 -0.47290546 107
3.7503548 0.056951132 -0.32683209 30
0.99256849 -0.42890587 -0.089846894 81
0.57859808 -0.63364577 -0.057594612 29
3.5443127 4.1425314 -0.29812494 21
5.4834743 2.5955398 -0.47107077 107
3.7599669 0.070882097 -0.32901293 31
0.98948044 -0.42327437 -0.090372063 81
nan nan nan 0
3.5907133 4.2280364 -0.29750341 21
5.4377084 2.5994809 -0.46481848 107
3.7746062 0.085657798 -0.33032027 32
0.99106926 -0.41945964 -0.090747729 81
nan nan nan 0
3.6558125 4.3368058 -0.29924816 21
5.4238729 2.6173325 -0.46128073 107
3.7941837 0.10001686 -0.33206338 33
0.99255604 -0.41580594 -0.091311201 81
nan nan nan 0
3.707382 4.4308352 -0.29873025 21
5.4144592 2.6372998 -0.45812741 107
3.8236442 0.11548695 -0.33467805 33
0.99863106 -0.41405496 -0.092299998 81
nan nan nan 0
3.7327578 4.4945321 -0.2969884 21
5.4537926 2.6824162 -0.45805606 104
3.8531227 0.13051425 -0.33661982 34
1.0001687 -0.41019908 -0.092866026 81
nan nan nan 0
3.7577491 4.5585141 -0.29410192 21
5.4441381 2.7024934 -0.45487374 104
3.882458 0.14643459 -0.33922929 34
0.9877879 -0.40089828 -0.091954291 81
nan nan nan 0
3.987848 4.8739338 -0.30799779 47
5.4344091 2.7225356 -0.45169121 104
3.9167328 0.16210538 -0.34227365 34
0.98458332 -0.39540076 -0.092080161 81
nan nan nan 0
3.9481196 4.8616266 -0.29972979 47
5.4290543 2.7447915 -0.44887656 104
3.9459684 0.17780514 -0.34488311 34
0.98604941 -0.39159951 -0.092635684 81
nan nan nan 0
3.9273026 4.8723774 -0.29402965 41
5.4231253 2.7679911 -0.44605654 104
3.9751675 0.19441812 -0.34679794 34
0.97817606 -0.38432804 -0.092132732 81
nan nan nan 0
nan nan nan 0
5.413219 2.7879908 -0.44180572 104
3.9992995 0.21029434 -0.34896815 33
0.97024834 -0.37711403 -0.091804497 81
nan nan nan 0
nan nan nan 0
5.3987432 2.8056192 -0.43825823 104
4.0283628 0.22733633 -0.35086817 33
0.96699524 -0.37158203 -0.091907665 81
nan nan nan 0
nan nan nan 0
5.3886271 2.8254941 -0.43507248 105
4.0672803 0.24449062 -0.35433352 34
0.95900983 -0.3644852 -0.091382056 82
nan nan nan 0
nan nan nan 0
5.3734632 2.8439016 -0.4325937 107
4.1010303 0.26160812 -0.3588002 34
0.96027929 -0.36094522 -0.092098281 83
nan nan nan 0
nan nan nan 0
5.345736 2.854357 -0.42588592 107
4.1300015 0.27938282 -0.35924232 34
0.95697492 -0.35551557 -0.091829382 83
nan nan nan 0
nan nan nan 0
5.2827382 2.8456509 -0.41853791 91
7.6268806 0.54402572 -0.66358238 35
0.94887769 -0.34855506 -0.091462784 83
nan nan nan 0
nan nan nan 0
nan nan nan 0
7.6049814 0.57182145 -0.6605221 35
0.93613702 -0.3398011 -0.090458766 84
nan nan nan 0
nan nan nan 0
4.7197781 2.5872161 -0.36882129 84
7.5829711 0.59812444 -0.65879637 36
0.92795807 -0.33298814 -0.090070397 85
nan nan nan 0
nan nan nan 0
4.7187638 2.6102731 -0.36574027 84
7.5758781 0.62551296 -0.65703815 36
0.92914253 -0.32957423 -0.090414532 85
nan nan nan 0
1.9206531 2.5692589 -0.11874605 10
4.7136884 2.6300743 -0.36325237 84
7.5636091 0.65374953 -0.65485209 36
0.94916677 -0.33257949 -0.092592172 84
nan nan nan 0
1.9083191 2.5723665 -0.11520705 10
4.7129321 2.6523504 -0.36014843 85
7.5562005 0.68101996 -0.6544224 36
2.6534064 -0.91882432 -0.25999498 18
nan nan nan 0
1.8959861 2.5754151 -0.11167838 26
4.6946645 2.6647735 -0.35665748 102
7.5437245 0.70910692 -0.65224057 37
2.6426964 -0.90376669 -0.25958693 18
nan nan nan 0
1.883643 2.5783896 -0.10871738 32
4.6807513 2.6796064 -0.35256255 102
7.5312719 0.73579353 -0.65006226 37
2.6364725 -0.89085829 -0.25963295 18
nan nan nan 0
3.1941371 4.4060483 -0.17958012 40
4.6619458 2.6926608 -0.34909144 95
7.5186119 0.76238698 -0.64920634 38
2.6301463 -0.8779934 -0.26015592 18
nan nan nan 0
3.1664016 4.4016485 -0.17324245 40
4.6608777 2.714874 -0.34597293 44
7.5157413 0.79126251 -0.64788735 38
2.6239562 -0.86474317 -0.26018617 18
0.60933203 -0.55874133 -0.07363797 25
3.1300263 4.3848968 -0.16648315 40
4.6596565 2.7370849 -0.34378347 39
7.5277605 0.82043529 -0.647847 32
2.6270216 -0.85509199 -0.26115057 19
nan nan nan 0
3.0880506 4.3597965 -0.15856606 40
4.6499009 2.7543271 -0.33812419 39
7.5745459 0.85363758 -0.64811808 31
2.6302855 -0.84499872 -0.26115057 22
nan nan nan 0
3.043406 4.3303285 -0.1515402 40
4.6399765 2.7714717 -0.33435109 39
7.640491 0.89079255 -0.65404856 31
2.6284897 -0.8338061 -0.26212391 23
nan nan nan 0
2.3814857 3.4150493 -0.11484032 67
4.6342115 2.7911243 -0.33182728 69
7.7164307 0.92832518 -0.65946984 31
2.6220841 -0.82070625 -0.2621367 24
nan nan nan 0
2.2905335 3.3079503 -0.10746896 67
4.6374359 2.8151727 -0.3289583 69
7.7923679 0.96506667 -0.66486317 31
2.6151941 -0.80903763 -0.26214251 26
nan nan nan 0
2.2608993 3.2920899 -0.10248583 80
4.6475725 2.8469205 -0.32666656 69
7.8676181 1.0064694 -0.67022878 30
2.6088116 -0.79560262 -0.26214135 27
nan nan nan 0
2.2460625 3.2963107 -0.09818057 80
4.6584845 2.8771386 -0.32529542 41
7.9627857 1.0483205 -0.67724693 30
2.6022277 -0.78268635 -0.26213318 28
nan nan nan 0
2.2256236 3.2921805 -0.093650058 67
4.6565742 2.89959 -0.32205895 41
8.1316223 1.1023289 -0.69051921 27
2.60022 -0.7717014 -0.26259986 28
nan nan nan 0
2.1996737 3.2796383 -0.088925727 66
4.650332 2.9194102 -0.31851882 41
8.3743868 1.1665118 -0.71000648 5
2.6030755 -0.76168573 -0.26354662 28
nan nan nan 0
2.1766117 3.2711072 -0.084360987 66
4.6440053 2.9392231 -0.31497154 41
8.6414566 1.2360172 -0.73149431 49
2.60098 -0.75073427 -0.26400805 29
nan nan nan 0
2.1564012 3.2666309 -0.079256967 66
4.6165977 2.9456303 -0.30904835 41
nan nan nan 0
2.599057 -0.73938012 -0.26352274 30
nan nan nan 0
2.1395507 3.2658424 -0.074966006 66
4.5891557 2.951844 -0.30411217 41
7.2232637 1.0885476 -0.60698414 36
2.5968697 -0.72848022 -0.26397893 30
nan nan nan 0
2.1276081 3.2737267 -0.070877418 66
4.5826721 2.9714756 -0.30057746 40
7.9479423 1.2289859 -0.66685855 255
2.5995586 -0.71847904 -0.26492038 31
0.65021247 -0.540968 -0.08412654 26
2.1183426 3.2857649 -0.066874266 63
4.5337958 2.9645727 -0.294323 35
8.8441563 1.4007767 -0.74090612 95
2.6020854 -0.70892203 -0.26586181 31
0.65223938 -0.53842986 -0.084717013 26
2.1144028 3.3061996 -0.063021131 46
4.5647578 3.00876 -0.29321894 35
8.3963985 1.3614239 -0.70231438 61
2.6046984 -0.69890141 -0.26680321 30
0.66184694 -0.54229438 -0.086460404 26
2.1156955 3.335089 -0.059286602 42
4.5746627 3.0393982 -0.29072356 35
8.3568192 1.3879584 -0.69795585 61
2.6071522 -0.68932611 -0.26774454 30
nan nan nan 0
2.1168027 3.3640289 -0.055499665 40
4.584403 3.0701494 -0.28819317 36
8.2978735 1.4094397 -0.69050163 61
2.6143851 -0.6809963 -0.26918158 30
0.68901694 -0.55596656 -0.090867288 30
2.1177239 3.3930187 -0.051660307 40
4.5898404 3.0982182 -0.28537047 36
nan nan nan 0
2.626574 -0.67341238 -0.2706463 29
nan nan nan 0
2.119065 3.4217012 -0.046363644 39
4.6158562 3.1404669 -0.28184012 39
6.2266917 1.1057792 -0.51438117 95
2.6483202 -0.66865277 -0.27263269 27
nan nan nan 0
2.1300852 3.4678261 -0.042620156 39
4.6456614 3.1857166 -0.28042853 39
5.5312757 1.0032088 -0.45624655 96
2.6556041 -0.65965545 -0.27408448 27
nan nan nan 0
2.1459961 3.5226147 -0.03887663 39
4.6464381 3.2113512 -0.27723125 40
5.5130162 1.020782 -0.45307606 61
2.6579108 -0.64989501 -0.27503961 27
nan nan nan 0
2.1848052 3.6160822 -0.034657486 38
4.6471276 3.2370603 -0.27302444 44
5.494597 1.0392081 -0.44893995 53
2.6846189 -0.64551115 -0.27705806 27
nan nan nan 0
2.4105506 4.0229549 -0.034379188 39
5.0400219 3.5382459 -0.29363564 100
5.4808869 1.0574367 -0.44911397 53
2.7158239 -0.64249408 -0.28200167 5
nan nan nan 0
2.3811831 4.0055904 -0.028466141 40
5.0394998 3.5655241 -0.28788555 99
5.4723907 1.0766162 -0.44481939 39
2.7328076 -0.63544142 -0.28350973 5
nan nan nan 0
2.3563473 3.9970925 -0.021865403 40
5.0266399 3.5841441 -0.28142077 99
5.4635568 1.0966854 -0.44150412 39
2.7109182 -0.61988723 -0.28051096 5
nan nan nan 0
2.369447 4.0531983 -0.01802746 43
5.0176058 3.6055155 -0.27949169 99
5.4545417 1.1156887 -0.442081 39
2.7082334 -0.60834038 -0.28194705 14
nan nan nan 0
2.3771527 4.1008034 -0.012409276 44
5.008637 3.6269808 -0.27324197 99
5.445837 1.134719 -0.43780172 40
3.0116055 -0.66490006 -0.3132745 53
nan nan nan 0
2.3628297 4.1090865 -0.006618286 44
4.9995737 3.6484256 -0.26698145 97
5.4367871 1.154633 -0.43449929 40
3.0190511 -0.65439677 -0.31324065 49
nan nan nan 0
2.3378494 4.1003485 0 44
4.9863906 3.666889 -0.26049995 97
5.4279413 1.1735624 -0.43023273 40
3.0214293 -0.64332706 -0.31324065 49
nan nan nan 0
2.3105009 4.0871243 0.0049165916 44
4.9770756 3.6882219 -0.25638554 97
5.4188085 1.1923938 -0.42887822 40
3.0140853 -0.62967521 -0.31276923 49
nan nan nan 0
2.2832782 4.0737505 0.0097808186 43
4.967669 3.7095344 -0.25226405 97
5.409471 1.2121342 -0.42655778 40
3.00652 -0.61660314 -0.31283 46
nan nan nan 0
2.2568889 4.0598297 0.016214075 41
4.954248 3.7278738 -0.24577141 98
5.4003482 1.2308944 -0.4232741 40
2.9991655 -0.60310382 -0.31128207 42
nan nan nan 0
2.2323308 4.0505409 0.020987513 41
4.9447021 3.7491539 -0.24055438 98
5.3910871 1.2495868 -0.42096141 40
2.9866092 -0.58919799 -0.31082621 39
nan nan nan 0
2.2078669 4.0411196 0.026522748 44
4.9311247 3.7674026 -0.23405603 98
5.3819036 1.2682614 -0.41672206 40
2.9693673 -0.57396019 -0.30826682 34
3.4926119 -2.4692478 -0.48733982 38
2.1763527 4.0183721 0.032701951 47
4.9372716 3.8008382 -0.2284735 103
5.3675075 1.2866431 -0.41308057 39
2.9225783 -0.55381197 -0.30319667 26
3.4811652 -2.4420681 -0.4859941 38
2.1848922 4.0307789 0.036010135 44
4.9308639 3.7931652 -0.22159253 98
5.3735862 1.2851253 -0.40573961 40
2.9423485 -0.5586223 -0.30104336 24
3.4892871 -2.4486747 -0.48266593 39
2.2068586 4.0359249 0.032916628 43
4.9453611 3.7741804 -0.2226783 100
5.3832517 1.2665958 -0.40417543 40
2.9844992 -0.57796586 -0.30289125 34
3.4884505 -2.468133 -0.47857055 38
2.2337236 4.0497236 0.02905954 43
4.9511013 3.7499247 -0.22557263 98
5.3930025 1.2470556 -0.40357372 40
3.0117006 -0.59524035 -0.30425826 39
nan nan nan 0
2.2592988 4.0641646 0.025158798 43
4.9594531 3.7304347 -0.22755742 98
5.4019704 1.2302724 -0.40393731 40
3.0245526 -0.60820895 -0.30358389 42
nan nan nan 0
2.2853961 4.0725279 0.019561592 43
4.9662495 3.7044253 -0.23151642 97
5.4115949 1.2096348 -0.40623659 40
3.0220301 -0.62088341 -0.30304542 42
nan nan nan 0
2.3112025 4.0867009 0.015569179 43
4.9743605 3.6848652 -0.23565158 97
5.4205852 1.1917928 -0.40757054 40
3.0297484 -0.63294739 -0.3034828 46
nan nan nan 0
2.3392746 4.0995216 0.01070933 44
4.976932 3.65592 -0.23831446 97
5.4301996 1.1710749 -0.40793672 40
3.0321441 -0.64671493 -0.30180636 49
nan nan nan 0
2.3653216 4.11342 0.0074534253 44
4.9849243 3.6364021 -0.2402755 97
5.4390006 1.1541111 -0.40733254 40
3.0252728 -0.65574539 -0.29970112 53
nan nan nan 0
2.3778763 4.1004019 0.002481858 44
4.9980817 3.6180072 -0.24458314 97
5.4481349 1.1342057 -0.4096404 40
2.9839559 -0.6587956 -0.29477978 53
nan nan nan 0
2.3715861 4.0519862 -0.0032777279 44
4.9920969 3.5832236 -0.24895553 99
5.4574594 1.1133088 -0.4109796 40
2.719135 -0.61178631 -0.2683681 5
nan nan nan 0
2.3660874 4.0088153 -0.0073120533 43
5.0254707 3.5793428 -0.25212121 99
5.4663925 1.0942774 -0.41134751 39
2.7363546 -0.62670887 -0.26832527 5
nan nan nan 0
2.3807592 4.0001073 -0.012186747 40
5.0384116 3.560797 -0.25642854 100
5.4802699 1.0751861 -0.4130581 39
2.7292371 -0.63561553 -0.26736042 5
nan nan nan 0
2.4017174 4.0050416 -0.017116405 40
5.0383935 3.5344775 -0.26010236 100
5.4886303 1.0579371 -0.41440251 40
2.7270925 -0.64515996 -0.26638222 5
nan nan nan 0
2.1389325 3.5387626 -0.018763969 39
5.0348396 3.5045199 -0.26139921 100
5.5025229 1.0387179 -0.41416448 47
2.6861258 -0.64587349 -0.26115057 27
nan nan nan 0
2.13749 3.5045209 -0.022210078 39
4.6622858 3.2174966 -0.24435592 40
5.5164552 1.0184315 -0.41490212 61
2.6691818 -0.6531446 -0.25782058 27
nan nan nan 0
2.1267347 3.4583104 -0.026218154 39
4.5791082 3.1353805 -0.24327429 39
6.2217431 1.1250744 -0.46874431 95
2.6619101 -0.66220844 -0.25639603 27
nan nan nan 0
2.1209378 3.420722 -0.030207003 39
4.5656366 3.1016388 -0.24581392 39
6.3339572 1.1202674 -0.47799975 255
2.6547251 -0.67076272 -0.25497493 27
0.69723701 -0.55421007 -0.087958515 29
2.1175411 3.3874586 -0.034165274 40
4.5602632 3.0736208 -0.24876343 39
8.2736044 1.4320741 -0.62692446 61
2.6377065 -0.67724788 -0.25310883 28
0.69913286 -0.55991071 -0.087824605 30
2.1139281 3.3542635 -0.03806068 40
4.5672002 3.0540118 -0.25237322 38
8.318018 1.4083807 -0.63137519 61
2.6160212 -0.68191004 -0.2503143 30
nan nan nan 0
2.1121988 3.325726 -0.041946448 44
4.5657291 3.0288706 -0.25551006 38
8.3773661 1.3853619 -0.63696188 61
2.6086547 -0.69069773 -0.24891138 30
0.67185009 -0.54638726 -0.083536945 30
2.112422 3.3018322 -0.044470031 46
5.0762029 3.3433266 -0.28558189 75
8.3967896 1.3599832 -0.63659936 61
2.6064756 -0.69937825 -0.24749838 31
0.65084606 -0.53290099 -0.08025562 28
2.1190636 3.2856236 -0.048450842 65
4.9257574 3.2171896 -0.28053752 75
8.391758 1.3276225 -0.6373359 61
2.6038542 -0.70940393 -0.24655636 31
nan nan nan 0
2.1283379 3.2735989 -0.052477852 66
4.820035 3.1229959 -0.27687663 70
7.1943421 1.1098861 -0.54734468 30
2.6013196 -0.71896565 -0.24561429 31
nan nan nan 0
2.1414249 3.2649729 -0.057248238 66
4.6432362 2.9820492 -0.27085811 41
7.8297596 1.1757543 -0.59671295 255
2.5984945 -0.72942525 -0.24467219 30
nan nan nan 0
2.1577289 3.2661622 -0.060127717 66
4.6277943 2.9505014 -0.27034527 41
8.6230097 1.2656472 -0.65531403 49
2.6008861 -0.73990041 -0.24323587 29
nan nan nan 0
2.1791039 3.2699003 -0.064473055 66
4.6352186 2.929131 -0.27392733 41
8.6576242 1.233704 -0.66061598 49
2.6075454 -0.75312233 -0.24318437 28
nan nan nan 0
2.201041 3.279202 -0.068936996 66
4.6447434 2.9136419 -0.27775523 41
8.1579676 1.1349142 -0.62219942 9
2.6097617 -0.76364219 -0.24268141 28
nan nan nan 0
2.2281587 3.2909765 -0.073535249 67
4.6477551 2.8895974 -0.28107011 41
8.043767 1.0861305 -0.61457676 27
2.6067562 -0.77413636 -0.24173222 28
nan nan nan 0
2.2468967 3.2962983 -0.077294044 67
4.6401887 2.8636019 -0.28289935 41
7.9287696 1.0424345 -0.60691249 30
2.6042554 -0.78280067 -0.24078302 27
nan nan nan 0
2.2674084 3.300333 -0.081777826 67
4.6296849 2.8326302 -0.28539318 69
7.8780317 1.0064042 -0.60413653 30
2.606075 -0.79427093 -0.24027301 27
nan nan nan 0
2.4217265 3.497417 -0.091337413 158
4.6270585 2.8077681 -0.28838414 69
7.8124657 0.96755576 -0.60020101 30
2.6175039 -0.80825073 -0.24063455 26
nan nan nan 0
3.0323751 4.345191 -0.11839327 49
4.6286759 2.785589 -0.28973779 69
7.7368631 0.92941344 -0.59275919 31
2.6288016 -0.8228088 -0.2400241 24
nan nan nan 0
3.0784912 4.3737559 -0.12511124 49
4.6353579 2.7643247 -0.29323792 69
7.6661444 0.88971508 -0.58841747 31
2.6350527 -0.83639419 -0.23992717 23
nan nan nan 0
3.1204517 4.3990264 -0.13181159 40
4.6453257 2.7472379 -0.29606378 44
7.60004 0.85248107 -0.58443063 31
2.6320493 -0.84607214 -0.23896211 22
nan nan nan 0
3.1552918 4.4170299 -0.13740383 40
4.6542759 2.7317393 -0.29888952 44
7.5483069 0.82134151 -0.58023983 32
2.6338964 -0.85682136 -0.23842588 19
nan nan nan 0
3.1801348 4.4174857 -0.14348347 40
4.6602349 2.7112324 -0.30237713 95
7.5263758 0.79105395 -0.57965577 38
2.6355882 -0.86806667 -0.23740181 18
nan nan nan 0
1.870494 2.5764048 -0.08726339 37
4.6665716 2.6899042 -0.30585757 102
7.5245624 0.7590102 -0.58059388 38
2.6367328 -0.88070357 -0.23685767 18
nan nan nan 0
1.8798879 2.5694818 -0.089486085 32
4.6763062 2.6727293 -0.30773774 102
7.5373187 0.73240036 -0.58003759 37
2.6430826 -0.89360595 -0.23575886 18
nan nan nan 0
1.8951681 2.5705433 -0.09311147 18
4.6946154 2.660414 -0.31113353 102
7.5498796 0.70569766 -0.58080131 37
2.6445816 -0.90492696 -0.23520418 18
nan nan nan 0
1.9125701 2.5762169 -0.096348643 10
4.7076201 2.6471977 -0.31424931 102
7.5621266 0.68022352 -0.58289021 37
0.95583111 -0.33079937 -0.084756471 84
nan nan nan 0
nan nan nan 0
4.7179189 2.6281173 -0.31990489 85
7.5744247 0.65068901 -0.58763635 36
0.9404034 -0.32969314 -0.083329998 84
nan nan nan 0
nan nan nan 0
4.727015 2.6116059 -0.32084745 84
7.5866814 0.62640494 -0.58574975 36
0.93466276 -0.33116505 -0.082221098 85
nan nan nan 0
nan nan nan 0
4.7547755 2.6020849 -0.3258177 91
7.5941067 0.59500194 -0.58746284 36
0.93330777 -0.33509171 -0.08170189 85
nan nan nan 0
nan nan nan 0
4.7685175 2.5869389 -0.3289583 101
4.17097 0.31142059 -0.3225663 23
0.9321 -0.33851993 -0.081355736 84
nan nan nan 0
nan nan nan 0
4.7909493 2.5764256 -0.33366394 101
4.1521883 0.29399067 -0.32175496 34
0.94486588 -0.34726852 -0.082055129 83
nan nan nan 0
nan nan nan 0
4.7684913 2.5439985 -0.33435109 101
4.1282716 0.27854198 -0.3198283 34
0.95775169 -0.35561395 -0.082917154 83
nan nan nan 0
nan nan nan 0
4.7701244 2.5192587 -0.33655822 106
4.1143751 0.26101741 -0.31939182 34
0.95634359 -0.3594659 -0.082560524 83
nan nan nan 0
nan nan nan 0
4.7791162 2.5016487 -0.34032422 110
4.0805135 0.24314186 -0.31668839 34
0.95965499 -0.36492211 -0.082425699 82
nan nan nan 0
nan nan nan 0
4.791656 2.488004 -0.34346604 113
4.046402 0.22764589 -0.31469229 33
0.96777201 -0.37168667 -0.082864076 82
nan nan nan 0
3.9061205 4.8791246 -0.24775183 41
4.8051262 2.4726808 -0.34472665 125
3.9925578 0.20993982 -0.30903891 33
0.9711166 -0.37706134 -0.082353391 81
nan nan nan 0
3.9380343 4.8787165 -0.25620416 47
4.8236351 2.4577646 -0.35008776 131
3.9634197 0.1917634 -0.30811203 33
0.974181 -0.38295469 -0.082564734 81
nan nan nan 0
3.9714773 4.8834176 -0.2638166 47
4.8417811 2.4436386 -0.35357285 144
3.9341619 0.17589711 -0.30647689 34
0.9820624 -0.39021453 -0.082982197 81
nan nan nan 0
4.0097146 4.8971696 -0.26859632 47
4.8586698 2.4319801 -0.35611999 159
3.8999929 0.16073072 -0.3023988 34
0.98544294 -0.39534658 -0.08263237 81
nan nan nan 0
4.0528851 4.9130478 -0.27696198 47
4.8852615 2.4229395 -0.36028337 160
3.865685 0.14512631 -0.29969534 34
0.99319661 -0.40289152 -0.082847089 81
nan nan nan 0
4.0819378 4.9079962 -0.28541294 30
4.9394464 2.4251571 -0.3683818 166
3.8362391 0.12860174 -0.29871798 34
0.99158466 -0.40688068 -0.082660019 81
nan nan nan 0
4.0644827 4.8507347 -0.28737453 24
4.9800696 2.4214151 -0.37168616 171
3.801877 0.11283707 -0.29533851 33
0.99015296 -0.41053978 -0.081724644 81
nan nan nan 0
4.0288215 4.7759137 -0.29028878 23
