# .PCD v0.7 - Point Cloud Data file format
VERSION 0.7
FIELDS x y z intensity
SIZE 4 4 4 4
TYPE F F F F
COUNT 1 1 1 1
WIDTH 1505
HEIGHT 1
VIEWPOINT 0 0 0 1 0 0 0
POINTS 1505
DATA ascii
4.956017 1.8875649 0.13424075 26
14.860425 -0.86465377 0.53022021 35
nan nan nan 0
3.4242127 -4.332695 0.16776145 35
2.8797739 2.8969138 0.044916015 23
4.9343419 1.9020255 0.13663012 26
14.863776 -0.80499333 0.53022021 35
nan nan nan 0
3.5475652 -4.4519205 0.16795573 54
2.8596015 2.8957639 0.046171691 26
4.9186916 1.9147514 0.13637184 26
14.871539 -0.75596189 0.52520037 35
nan nan nan 0
3.5999486 -4.4870472 0.16370113 53
2.8419454 2.8990607 0.048892472 27
4.9069452 1.9309187 0.1380834 27
14.884284 -0.70192498 0.52295214 35
nan nan nan 0
3.6258676 -4.4855714 0.16010119 52
nan nan nan 0
4.890501 1.9451782 0.13965882 27
14.901732 -0.64801788 0.52347827 35
nan nan nan 0
3.6549957 -4.4878602 0.15560529 52
5.5636983 5.7613783 0.10904132 83
4.8736763 1.9601933 0.14122725 27
14.918987 -0.59399235 0.52400434 35
nan nan nan 0
3.6849539 -4.4893303 0.15208806 52
5.5390439 5.77808 0.11316425 83
4.8571754 1.9742697 0.1418736 26
14.936228 -0.53985566 0.5193134 35
nan nan nan 0
3.7078536 -4.4836178 0.14625715 52
5.5074339 5.7874188 0.11852968 83
4.8406143 1.988242 0.14342977 26
14.953178 -0.48559749 0.51722306 35
nan nan nan 0
3.7307415 -4.4777746 0.14142238 52
5.4792609 5.8002362 0.12395179 84
4.8332477 2.0059509 0.14525644 27
14.964849 -0.43107587 0.51756859 35
nan nan nan 0
3.7504201 -4.4679923 0.13645311 52
5.4510493 5.8129048 0.1307507 84
4.8165979 2.019767 0.14680213 27
14.976318 -0.37647519 0.51791412 35
nan nan nan 0
3.818476 -4.515358 0.13419557 56
5.4194412 5.8218164 0.13466927 83
4.7999349 2.0334978 0.147431 27
14.967786 -0.32137105 0.51234269 35
nan nan nan 0
3.8221216 -4.4862161 0.12757011 56
5.3912158 5.8342266 0.14004581 83
4.7786174 2.045157 0.14882134 27
14.978856 -0.26668712 0.5126847 35
nan nan nan 0
3.7344096 -4.3508596 0.12010477 75
5.3575339 5.8446732 0.1467005 83
4.7657104 2.0623069 0.15139721 27
6.0408888 -0.083297662 0.20674978 25
nan nan nan 0
3.8107917 -4.4039555 0.11690739 75
5.3269696 5.852211 0.1491854 84
4.7588453 2.0780993 0.15139721 28
6.041204 -0.063265651 0.20464088 25
nan nan nan 0
3.9009774 -4.4780812 0.11299627 65
5.2986913 5.8641782 0.15589404 84
4.7374296 2.0894554 0.15276745 28
6.0413952 -0.041123107 0.20464088 25
nan nan nan 0
3.7987056 -4.3285446 0.10555159 81
5.2704134 5.8760343 0.16120747 84
4.71597 2.1006715 0.15502827 29
6.0415053 -0.018980011 0.20464088 25
nan nan nan 0
3.7814915 -4.2772059 0.099653237 61
5.2421355 5.8877807 0.16513097 84
4.6854496 2.1076906 0.15427789 29
6.0366092 0.0010535871 0.20236446 24
nan nan nan 0
3.7864814 -4.2528415 0.094422348 40
5.2158818 5.8975554 0.17041808 85
4.6738338 2.1211286 0.15591945 30
6.0515556 0.02323642 0.20286702 23
nan nan nan 0
3.792083 -4.2278295 0.089217559 35
5.1842575 5.9052725 0.17557946 85
4.656867 2.1340468 0.158298 31
6.0764155 0.045603842 0.20370463 23
nan nan nan 0
3.8075941 -4.2139478 0.085252635 31
5.1559086 5.9165792 0.18220472 85
4.612679 2.1342885 0.15883665 36
6.091198 0.068042167 0.20420718 23
nan nan nan 0
3.8533411 -4.2332821 0.08193168 31
5.1275635 5.9277778 0.18744445 85
4.6002216 2.1490297 0.16133901 36
6.0909076 0.090367064 0.20420718 25
nan nan nan 0
3.9364562 -4.2928786 0.078280024 31
5.0991817 5.9388208 0.1940363 85
4.5877428 2.1637199 0.16295083 31
6.0855393 0.1125983 0.20403965 25
nan nan nan 0
3.9725549 -4.3004961 0.074595973 31
5.0697684 5.9506421 0.19924615 84
4.6067762 2.193373 0.16658565 25
6.095078 0.13512369 0.2043747 25
1.5655795 -0.66100466 0.045094013 26
3.9917388 -4.2896128 0.069546245 31
5.041379 5.9614434 0.20444196 83
4.5806637 2.2015715 0.16682005 19
6.084621 0.15720603 0.20191501 24
1.5541849 -0.64949226 0.043520179 26
4.0150604 -4.2815914 0.064542718 31
5.0097613 5.9682846 0.20948932 83
4.563519 2.2139573 0.16826251 19
6.0889988 0.1796536 0.2020808 24
nan nan nan 0
4.0341969 -4.2705202 0.059471078 33
4.9813352 5.9787841 0.21601173 83
4.5014381 2.2042577 0.16889758 19
6.1082773 0.20263243 0.2027439 24
1.804113 -0.73844969 0.048663452 80
0.5204488 -0.54690719 0.0071156016 40
4.9561305 5.9930615 0.219945 83
4.466423 2.2074437 0.16875678 19
6.1125236 0.22520433 0.20184213 23
1.7929397 -0.7262153 0.046938643 80
0.5155347 -0.53778249 0.0062412242 40
4.927691 6.0033402 0.22508456 83
4.4314194 2.2103901 0.16946983 8
6.1216426 0.24801089 0.20217192 23
1.7909647 -0.71778554 0.046143852 80
0.51403207 -0.53229576 0.0056827362 40
4.8960586 6.0095825 0.2314146 83
4.4499888 2.2400575 0.17310447 8
6.1356702 0.27110797 0.20266664 23
1.7889518 -0.70937985 0.045352545 86
0.50900942 -0.52324307 0.0050963196 40
4.8675857 6.0195551 0.2378719 84
4.4060264 2.2382064 0.17430307 8
6.14961 0.29431117 0.20316136 22
1.7870233 -0.70068657 0.044564724 86
0.50742722 -0.51780587 0.0044287452 40
4.839129 6.029429 0.2429622 84
4.3888464 2.2497537 0.17567214 8
6.1833887 0.31864709 0.20539631 16
1.7989218 -0.69775575 0.043786552 85
0.50941378 -0.51585579 0.0039226082 40
4.8137503 6.0430484 0.24954745 84
4.3316693 2.2405303 0.17626783 7
1.2823408 0.070795968 0.042604402 36
1.8201495 -0.69832546 0.04355979 85
0.51130283 -0.513987 0.0034164693 40
4.7852883 6.0527072 0.25326467 83
4.2835331 2.2355704 0.17548572 7
1.2770987 0.075202614 0.041992068 36
1.8367456 -0.6969806 0.042523369 81
0.5096463 -0.50858003 0.0026389319 40
4.7536793 6.0582356 0.25949273 81
4.266386 2.246556 0.17764744 6
1.2718197 0.07957042 0.042050444 36
1.8393017 -0.69024915 0.041837614 81
0.50795597 -0.50319099 0.0021214446 49
4.7251897 6.0675883 0.26452494 80
4.2404184 2.2527723 0.17858718 6
1.2316288 0.081588782 0.040731214 37
1.8418326 -0.6835081 0.041151851 81
0.50266778 -0.49431524 0.0015995929 49
4.6966653 6.0767741 0.27088353 79
4.2012234 2.2517323 0.17978217 6
1.1814703 0.082616441 0.039082173 39
1.8443389 -0.67675781 0.040466085 81
0.47943187 -0.46802127 0.001052433 49
4.6681328 6.0858283 0.27722448 78
4.1576986 2.2480593 0.18074939 9
1.131315 0.083277106 0.037631124 139
1.8421209 -0.66829336 0.039679095 81
0.4416475 -0.4279862 0.00053668866 40
4.6385608 6.0955997 0.28221092 77
4.1010995 2.2369206 0.18109366 24
1.101108 0.085112289 0.036636472 171
1.8398652 -0.65985417 0.038895585 84
0.40364414 -0.38816416 0 38
4.6100459 6.1044264 0.28718323 77
4.0665812 2.2374709 0.18074167 50
1.0858521 0.087937839 0.035949007 192
1.8422966 -0.65311527 0.037530996 84
0.37974748 -0.36251435 -0.00045814883 38
4.5844927 6.1170812 0.29366672 77
6.9501691 3.8573 0.31369916 60
1.0755634 0.091073804 0.035619196 203
1.8399724 -0.64470977 0.036754455 84
0.37018543 -0.350802 -0.00080110575 38
4.5559554 6.1256595 0.29861256 76
6.9576373 3.8948691 0.31886005 60
1.0702384 0.094574891 0.035641812 203
1.842335 -0.63796574 0.036073893 86
0.36782637 -0.3460165 -0.0011458077 38
4.5303488 6.1380844 0.30507475 76
6.97367 3.9374828 0.32305405 60
1.0698845 0.098496884 0.035641812 203
1.8399427 -0.62959445 0.035302579 87
0.36909124 -0.34466523 -0.0015865016 38
4.5017905 6.1464143 0.3099941 76
6.9894829 3.9802661 0.32727247 59
1.0695225 0.10241813 0.035454292 203
1.8376278 -0.62093037 0.034196205 89
0.37041083 -0.34324443 -0.0020271945 38
4.4761024 6.1585655 0.31776369 76
7.0049725 4.0231586 0.33433503 59
1.0741003 0.10683081 0.035995979 203
1.8398911 -0.614191 0.034196205 89
0.37166557 -0.34188372 -0.0022916093 38
4.4475579 6.1666903 0.32132775 76
7.0160666 4.0638003 0.33699071 59
1.0786786 0.11128031 0.035973363 203
1.8421522 -0.60745066 0.032842036 89
0.37291449 -0.34051773 -0.0027322995 38
4.421854 6.178658 0.32774723 76
7.0225396 4.1019964 0.34228724 59
1.0832262 0.11576349 0.036329281 203
1.844377 -0.60069829 0.032164942 89
0.37045401 -0.33578938 -0.0030543071 38
4.3932261 6.1864424 0.33393785 76
7.0331283 4.1428289 0.34782273 59
1.0877616 0.12028217 0.036495928 203
1.8418177 -0.59240693 0.031406693 89
0.37168056 -0.33442783 -0.0034033656 38
4.3667951 6.1926208 0.3387883 76
7.0449681 4.1813331 0.3533895 59
1.0873504 0.12388793 0.036686935 171
1.839013 -0.58478266 0.030988732 90
0.37657228 -0.33645803 -0.0037899467 38
4.3388333 6.2057123 0.34649462 76
7.0622487 4.2300177 0.35942373 59
1.0918007 0.12883669 0.037046332 171
1.8413557 -0.57739884 0.030315122 93
0.38540131 -0.34157431 -0.0042245216 38
4.3102264 6.2131653 0.35131672 75
7.0764112 4.2738194 0.36672187 55
1.0962818 0.13344128 0.037214726 171
1.8386939 -0.56917077 0.029564714 93
0.39790991 -0.3500649 -0.0047175623 36
4.2844181 6.2245522 0.35767916 75
7.0903983 4.3178124 0.37261972 57
1.0957787 0.13745765 0.037407473 171
1.8407774 -0.56243086 0.028892839 94
0.42178327 -0.36833405 -0.0053755315 35
4.2585807 6.2358289 0.36403257 75
7.0998969 4.3593493 0.37832731 57
1.1002171 0.14211226 0.037770357 171
1.8332629 -0.55279648 0.02807436 94
nan nan nan 0
4.2327156 6.2469964 0.37037703 75
7.11343 4.4036407 0.38429558 57
1.0996822 0.14614291 0.037963979 171
1.8305845 -0.54432964 0.027667737 96
nan nan nan 0
4.2040372 6.2539086 0.37646297 73
7.1267295 4.4480882 0.39030036 55
1.1040903 0.15084894 0.038134988 171
1.8277791 -0.53621185 0.026930405 96
nan nan nan 0
4.1781325 6.2648454 0.38278505 73
7.1397948 4.4926891 0.39634165 55
1.1035234 0.1548937 0.038329475 171
1.829741 -0.52951169 0.026265498 97
nan nan nan 0
4.1522012 6.275671 0.38909811 72
7.1492 4.5335202 0.40218216 55
1.1029416 0.15893632 0.038523965 203
1.8316739 -0.52280301 0.025933046 97
nan nan nan 0
4.1262441 6.2863874 0.39540213 72
7.1618133 4.5784097 0.4082939 55
1.102345 0.16297674 0.038718455 235
1.8287739 -0.51473397 0.025201814 97
nan nan nan 0
4.1002617 6.2969928 0.40169719 72
7.1741281 4.6234093 0.41593167 57
1.0967931 0.16626598 0.038738441 255
1.825839 -0.50669312 0.024474069 97
nan nan nan 0
4.074254 6.3074884 0.40798324 71
7.1778889 4.663157 0.42163041 64
1.0912319 0.16951674 0.038756683 255
1.8228655 -0.49867955 0.024079656 99
nan nan nan 0
4.0482211 6.317873 0.41426021 71
9.7298441 6.3718834 0.57900536 31
1.0955313 0.17429921 0.039125666 255
1.8198618 -0.49069566 0.023358017 99
nan nan nan 0
4.0270915 6.331017 0.41949859 72
9.6959019 6.3956981 0.58434141 31
1.0998796 0.17873266 0.039301906 255
1.8166515 -0.48337358 0.022967961 100
nan nan nan 0
4.0093951 6.3594241 0.42820877 72
9.6407061 6.4149756 0.59066725 31
1.0991465 0.18314528 0.039496392 235
1.8137481 -0.47481298 0.022252426 100
nan nan nan 0
nan nan nan 0
9.5919895 6.4334059 0.59518653 31
1.0984609 0.18717146 0.039690871 111
1.8155618 -0.46784621 0.0219252 100
nan nan nan 0
4.793664 7.7283759 0.53393215 73
9.5391293 6.4487681 0.59941429 31
1.0977608 0.19119507 0.039885353 111
1.8124254 -0.4599607 0.021214021 101
nan nan nan 0
4.7624445 7.7412429 0.54157078 73
9.4862852 6.463829 0.60360527 31
1.0921263 0.19434065 0.039900102 111
1.8141028 -0.45331562 0.020887665 102
nan nan nan 0
4.7285929 7.7497191 0.54889864 73
7.6388888 5.2461381 0.4937647 20
1.0864767 0.19744627 0.040105835 255
1.810904 -0.44547099 0.020180849 102
nan nan nan 0
4.6973233 7.7623162 0.55651474 73
7.6152906 5.271111 0.49834809 20
1.0857388 0.20142581 0.04029857 255
1.8125279 -0.43883154 0.019855363 102
nan nan nan 0
4.6660213 7.7747817 0.56412172 73
7.6202011 5.3159261 0.5064466 20
1.0898957 0.20633198 0.040674515 255
1.8189912 -0.43334481 0.019582236 102
nan nan nan 0
4.6321363 7.7828288 0.5714047 73
7.6331215 5.3666382 0.51350945 39
1.0891252 0.21032393 0.040868118 255
1.8254416 -0.42781734 0.018980132 101
nan nan nan 0
4.5957155 7.7864304 0.5783506 73
9.2099504 6.525836 0.62712198 13
1.0981449 0.21624373 0.041431643 213
1.8270006 -0.42112464 0.018652899 100
nan nan nan 0
3.3137262 5.6571536 0.42512152 255
3.5801063 2.5546076 0.24666132 27
1.1023138 0.22086431 0.041812818 111
1.8333385 -0.41585132 0.018374534 100
nan nan nan 0
3.2031114 5.5189948 0.42048046 70
9.1176319 6.5589242 0.64171445 30
1.1111869 0.22728556 0.042778354 100
1.8349931 -0.40848851 0.018374534 99
nan nan nan 0
3.1846077 5.5292659 0.4260489 70
9.0551329 6.5596414 0.64471704 30
1.1299865 0.23503754 0.043733604 73
1.8363407 -0.40240189 0.018046428 98
nan nan nan 0
3.1596911 5.5372815 0.4323923 40
9.0082102 6.5809488 0.65106654 30
1.1534566 0.24475397 0.045091812 39
1.8379443 -0.39502779 0.017718319 98
nan nan nan 0
3.1219559 5.5180378 0.43666342 32
8.9755287 6.6076636 0.66021037 31
1.18183 0.25530481 0.046871301 36
1.8442718 -0.38932142 0.017765442 98
nan nan nan 0
3.0722401 5.4769068 0.438021 32
8.9228201 6.6194248 0.66589725 31
1.185758 0.2607058 0.047276881 36
1.8554808 -0.38458931 0.017528964 97
nan nan nan 0
2.9525332 5.3090153 0.43011829 37
8.8740454 6.6338034 0.67377126 31
1.1798947 0.26395392 0.047715396 35
1.8715731 -0.38077584 0.018001059 97
nan nan nan 0
2.9352438 5.323771 0.43683797 37
8.8214846 6.645052 0.67742962 31
1.1837745 0.26938152 0.048336346 35
1.8778621 -0.37489307 0.017713966 96
nan nan nan 0
3.0518177 5.583509 0.46392798 74
8.7527771 6.6437192 0.68557006 31
1.1974047 0.27688292 0.049576607 35
1.8743169 -0.36704695 0.017667715 96
nan nan nan 0
3.0382261 5.6073799 0.4716976 74
8.581234 6.5632219 0.68347853 31
1.2352622 0.29041058 0.051853273 36
1.8658265 -0.35828847 0.017906811 97
nan nan nan 0
3.0323007 5.5987768 0.47651663 74
8.6637936 6.6263666 0.70343441 28
1.2157388 0.2858206 0.052780513 36
1.8658001 -0.3582834 0.020559577 97
nan nan nan 0
3.0525575 5.5825472 0.47059116 74
8.7461777 6.6338987 0.7041077 31
1.1925299 0.27531722 0.051938515 36
1.8692421 -0.36673072 0.021611076 97
nan nan nan 0
2.9286127 5.3095522 0.44528821 37
8.8223562 6.6408825 0.70634103 31
1.1691558 0.26541111 0.051297039 36
1.8727689 -0.37455603 0.02333447 97
nan nan nan 0
2.9894586 5.3732033 0.44614777 33
8.8749161 6.6296268 0.70277506 31
1.1603783 0.25895005 0.050662059 36
1.8615816 -0.37941983 0.023543889 97
nan nan nan 0
3.082464 5.4928856 0.45370504 32
8.9272156 6.617856 0.70499104 31
1.1612937 0.2546896 0.051284574 36
1.8454052 -0.38350886 0.025002854 99
nan nan nan 0
3.1224227 5.5166163 0.45104724 32
8.9719048 6.6001673 0.69879818 30
1.1475867 0.24727854 0.05022835 39
1.8342006 -0.38819873 0.025197433 99
nan nan nan 0
3.1576512 5.5314646 0.44761837 48
9.0245438 6.5880508 0.69513953 30
1.1338323 0.23996954 0.049384866 73
1.8278737 -0.39386475 0.025456587 99
nan nan nan 0
3.180548 5.5244465 0.44351873 69
9.0730743 6.572638 0.69309157 30
1.115132 0.23174475 0.048732188 100
1.8264002 -0.4005577 0.026761966 100
nan nan nan 0
3.2209666 5.5475283 0.44181678 73
9.1256647 6.5598712 0.6913296 29
1.1012819 0.22465888 0.048287146 100
1.8249059 -0.40724599 0.027740991 100
nan nan nan 0
nan nan nan 0
9.1731758 6.5455785 0.68727118 28
1.0923096 0.21866153 0.047663502 111
1.8185208 -0.41282403 0.027992284 100
nan nan nan 0
4.5986104 7.7882295 0.60866594 73
nan nan nan 0
1.0833001 0.21273139 0.047236025 255
1.8169078 -0.41980022 0.028968683 101
nan nan nan 0
4.6348319 7.7904515 0.60368049 73
7.6880574 5.405262 0.56493074 39
1.0840077 0.20913942 0.047043346 255
1.8155007 -0.42582181 0.029294148 101
nan nan nan 0
4.6688509 7.7764201 0.59768063 73
7.6074934 5.3031139 0.55419326 20
1.0799217 0.20385811 0.047022291 255
1.8088937 -0.43194029 0.030513968 102
nan nan nan 0
4.6975904 7.7596984 0.58976501 73
7.6189065 5.269681 0.54874629 20
1.0806696 0.19990012 0.046830479 255
1.8072933 -0.43856603 0.030838555 103
nan nan nan 0
4.7340641 7.7556419 0.58280915 73
7.6384058 5.2418833 0.54389572 20
1.081403 0.19593938 0.046638668 255
1.8056685 -0.44518587 0.031163139 103
nan nan nan 0
4.765286 7.7428331 0.57678211 73
nan nan nan 0
1.0870247 0.1928457 0.047043346 255
1.8088526 -0.45301008 0.032548737 102
nan nan nan 0
4.7911997 7.7274132 0.56884784 73
9.5278397 6.4411359 0.6651448 31
1.0925878 0.19009764 0.047062654 111
1.8073348 -0.45900455 0.032874189 102
nan nan nan 0
3.9833684 6.3673005 0.46463376 72
9.5869846 6.4251986 0.66342586 31
1.093334 0.18570882 0.047256209 235
1.8053737 -0.46656522 0.034175996 101
nan nan nan 0
3.9989066 6.3403344 0.45716619 72
9.6356993 6.4067926 0.65908897 31
1.0940154 0.18170165 0.047062654 255
1.8036457 -0.47317761 0.034501445 100
nan nan nan 0
4.0200377 6.32724 0.4532412 71
9.6861506 6.3941193 0.65905362 31
1.0946038 0.17807144 0.047256209 255
1.8068801 -0.48043594 0.035572901 100
nan nan nan 0
4.0456581 6.3114476 0.44539085 71
9.7288322 6.3663688 0.65207064 31
1.095318 0.17367728 0.047062654 255
1.8097509 -0.48898605 0.036322393 100
nan nan nan 0
4.0694408 6.3024502 0.44045004 72
7.1670833 4.6561365 0.47634038 64
1.095896 0.17004538 0.046869095 255
1.8129349 -0.49630299 0.03674731 99
nan nan nan 0
4.0954027 6.2919321 0.43550208 72
7.1666484 4.6203604 0.472251 55
1.0965037 0.16602635 0.047062654 255
1.8158953 -0.50427502 0.038160764 99
nan nan nan 0
4.1262727 6.2840395 0.43083295 72
7.1600356 4.5755129 0.46762604 55
1.0971451 0.16162097 0.047449764 255
1.8138368 -0.5115549 0.039147537 97
nan nan nan 0
4.1522384 6.2733479 0.42455414 72
7.1474457 4.5306587 0.46127188 55
1.0977381 0.15759982 0.047256209 235
1.8119365 -0.51819575 0.039805382 97
nan nan nan 0
4.175952 6.2639432 0.41958022 73
7.1372795 4.4911065 0.45522377 55
1.0982629 0.15395986 0.047062654 224
1.8149111 -0.52590668 0.040240757 97
nan nan nan 0
4.2040515 6.2515736 0.41328421 73
7.1300325 4.446692 0.44920692 55
1.0988542 0.14974283 0.046869095 224
1.8127718 -0.53318399 0.040900342 97
nan nan nan 0
4.2298985 6.2404928 0.40829501 75
7.1123805 4.3995576 0.44561201 56
1.1043396 0.14636959 0.047274649 171
1.8155682 -0.54124439 0.042331181 96
nan nan nan 0
4.2557588 6.2293625 0.40198195 75
7.0988641 4.3553038 0.43938905 57
1.1048687 0.14232101 0.047274649 171
1.8183502 -0.54933864 0.042774402 96
0.4570103 -0.3964335 -0.0026398019 34
4.2815905 6.2181215 0.3956598 75
7.0893803 4.3138008 0.43346336 57
1.105391 0.13827153 0.047080219 107
1.8210899 -0.55745822 0.043551769 94
0.42920113 -0.37507606 -0.0020891544 35
4.3051891 6.2082176 0.39064726 75
7.0739198 4.2723145 0.42731076 57
1.1058517 0.13460615 0.046885788 107
1.8239914 -0.56496853 0.044332616 94
0.40161622 -0.35344988 -0.0015873746 37
4.3359551 6.1992908 0.38588226 75
7.0568638 4.2234459 0.42237449 59
1.106375 0.13016495 0.047080219 171
1.8216866 -0.57227892 0.045332417 94
0.38523462 -0.34178689 -0.00098872837 38
4.3623943 6.1932626 0.38110313 76
7.045197 4.1847949 0.41797543 59
1.0819844 0.12365915 0.046024609 171
1.8292911 -0.58133972 0.046239771 94
0.37664124 -0.3364014 -0.00070511276 38
4.3903413 6.1800938 0.37341595 76
7.032002 4.1388602 0.41192022 59
1.102342 0.12150495 0.046675537 171
1.8316849 -0.59020627 0.047031939 90
0.37157232 -0.33456522 -0.00034906581 38
4.4189277 6.1722927 0.36860847 76
7.0214324 4.0980635 0.40615088 59
1.1027881 0.11746472 0.046481974 203
1.8294936 -0.5969106 0.047703687 90
0.37034369 -0.33592492 0 38
4.4424047 6.1618123 0.36487368 76
7.0091171 4.0597749 0.40324029 59
1.0783094 0.11124223 0.045813482 203
1.8322269 -0.60453236 0.048837826 90
0.37286037 -0.34058768 0.00044069556 38
4.4731269 6.1522136 0.3600432 76
6.9994912 4.0167618 0.39893171 59
1.0986239 0.10888267 0.046850663 203
1.8392332 -0.61504185 0.050444797 89
0.37516773 -0.34546807 0.00097912911 38
4.4995885 6.1456575 0.35386926 76
6.986855 3.9787695 0.39464396 60
1.1039518 0.1057151 0.047062654 203
1.8417929 -0.62305421 0.051253509 89
0.37401947 -0.34670976 0.0013351752 38
4.5303378 6.1358275 0.34767759 76
6.9681525 3.9311602 0.38849396 60
1.0745273 0.098546065 0.045602359 203
1.83926 -0.63043678 0.051932205 86
0.36897075 -0.34479389 0.0016746402 38
4.5559216 6.1233826 0.34257701 77
6.9565382 3.8910651 0.38286546 60
1.119668 0.098549031 0.047502462 181
1.8416418 -0.63880575 0.052746139 85
0.37134421 -0.34957016 0.0020472656 38
4.5793753 6.1124754 0.33613628 77
6.9477429 3.8559535 0.37750551 60
1.1299525 0.095679224 0.047726788 181
1.8395046 -0.64490628 0.053086352 85
0.37374923 -0.35430303 0.0024268713 38
4.6079078 6.1038098 0.33123681 78
6.9444976 3.8209274 0.37240627 60
1.0954407 0.088714384 0.046255037 192
1.8371109 -0.65163779 0.053766776 84
0.37967876 -0.36257544 0.0028405094 38
4.6385975 6.0934405 0.3249867 78
6.9373622 3.7823725 0.36709583 55
1.1555667 0.088916004 0.048575755 139
1.8391575 -0.66068739 0.054927878 81
0.40343332 -0.38836822 0.003420824 38
4.6671176 6.0845051 0.32005724 79
6.9512353 3.7569509 0.36571676 44
1.1807786 0.086503774 0.050035924 47
1.8413936 -0.66912079 0.056094199 81
0.44148698 -0.42812955 0.0044008102 40
4.6967602 6.0747056 0.31243339 79
6.9739871 3.7362852 0.36065573 42
1.2209827 0.084951147 0.05108406 39
1.8436108 -0.67758614 0.056580111 81
0.47567901 -0.46468216 0.0049907216 40
4.7252336 6.0654612 0.30881414 80
6.98769 3.7107289 0.35927483 36
1.2511767 0.082445078 0.052772794 37
1.8457714 -0.68606961 0.057755135 81
0.49891442 -0.49096692 0.0059864065 49
4.7506499 6.0521994 0.30364344 83
6.9748883 3.6712208 0.35378698 34
1.271414 0.079099506 0.053613793 37
1.8432256 -0.69282293 0.058442496 81
0.50767297 -0.50343758 0.0066138306 49
4.7822289 6.0466681 0.29885298 84
6.9573512 3.629488 0.35084802 31
1.2766731 0.074730374 0.054047246 36
1.8359635 -0.69778383 0.059665378 81
0.50581914 -0.50528973 0.0073625408 49
4.8086076 6.0387554 0.29385126 84
6.9339671 3.588088 0.34633613 30
15.402774 0.85036236 0.65194488 6
1.8149573 -0.69669682 0.059736714 85
0.50413805 -0.50696152 0.0077368934 49
4.8370895 6.0290437 0.28883541 84
6.9250083 3.5513346 0.34115332 30
15.370864 0.79210299 0.65046704 25
1.7937359 -0.69610447 0.059794087 87
0.50578398 -0.5123589 0.0084192762 40
4.8645515 6.0136561 0.28227231 84
4.4629297 2.2661326 0.21678595 255
15.339104 0.7287401 0.64630902 31
1.7862459 -0.70146102 0.060643595 87
0.50721693 -0.51795286 0.0089838523 40
4.8908701 6.0053539 0.2785818 84
nan nan nan 0
15.321246 0.67697775 0.65082139 31
1.7838801 -0.70736879 0.061648391 86
0.50888574 -0.52329868 0.0096828025 40
4.924603 5.9974432 0.272349 83
4.4705815 2.2289498 0.21373767 19
15.293892 0.61426616 0.64954942 32
1.785634 -0.71637261 0.062816337 80
0.51024592 -0.52892911 0.010390471 40
4.9509521 5.9889278 0.26727504 83
4.455658 2.2030909 0.21006644 19
15.280869 0.5629946 0.64891344 32
1.7969965 -0.72822362 0.063982636 80
0.51540226 -0.53783214 0.011051892 40
4.9762149 5.9747586 0.26066151 83
4.5534925 2.2307329 0.21251893 19
15.287935 0.50715303 0.64645571 32
nan nan nan 0
4.0522437 -4.2597389 0.09133289 38
5.0067015 5.9625268 0.25556111 83
nan nan nan 0
nan nan nan 0
1.5604707 -0.64636809 0.056916635 26
4.0419178 -4.2831841 0.096627563 33
5.0362115 5.9574418 0.25196868 84
4.5698214 2.1973422 0.20986396 19
nan nan nan 0
1.5536714 -0.64959615 0.057923913 26
4.034471 -4.3037953 0.10193961 33
5.0667372 5.9449816 0.24411178 84
4.5877914 2.1833518 0.20584372 19
nan nan nan 0
nan nan nan 0
4.0171256 -4.3199167 0.10502836 31
5.0993786 5.9369526 0.24048251 84
4.6093516 2.1729281 0.20556153 25
nan nan nan 0
nan nan nan 0
3.9910152 -4.3235078 0.11092306 31
5.1256843 5.9276962 0.23531879 84
4.5984926 2.1492 0.20298359 34
nan nan nan 0
nan nan nan 0
3.96909 -4.3299837 0.11483534 31
5.1561399 5.9147606 0.22877154 85
4.6207829 2.137059 0.2009173 34
6.0791273 0.06578505 0.2590577 24
nan nan nan 0
4.1870222 -4.6047053 0.12710786 52
5.1823969 5.9052315 0.22494918 85
4.6414685 2.1279707 0.20150882 31
6.0642352 0.045512427 0.26053596 24
nan nan nan 0
4.1850567 -4.6333194 0.13296483 52
5.2107296 5.8938022 0.21974328 85
4.6629486 2.1171701 0.20031275 30
6.0493751 0.023228047 0.25989214 24
nan nan nan 0
4.1613092 -4.6411128 0.13710375 52
5.2369919 5.8840709 0.21452332 85
4.6791196 2.1058252 0.19891252 29
6.0394745 0.0010540871 0.25840884 25
nan nan nan 0
4.1209264 -4.630105 0.14174329 52
5.2686324 5.8761115 0.20942192 85
4.700592 2.0948045 0.19679902 29
6.0393991 -0.018973395 0.25946295 25
nan nan nan 0
4.0789962 -4.6137104 0.14512815 52
5.2990017 5.862464 0.20279111 84
4.7227411 2.0819924 0.19557062 29
6.0392742 -0.043216877 0.25946295 25
nan nan nan 0
4.0043468 -4.5660825 0.14736551 65
5.3252354 5.8523569 0.19752371 84
4.7388697 2.0703611 0.19324152 28
6.0390978 -0.063243598 0.25946295 25
nan nan nan 0
3.9587727 -4.5460281 0.15048237 65
5.3578935 5.8430185 0.19236353 84
4.7510738 2.0549889 0.19162135 28
nan nan nan 0
nan nan nan 0
3.892967 -4.503685 0.15380573 65
5.3882041 5.8289261 0.18567912 83
4.7685342 2.0398567 0.19018084 27
14.863885 -0.26723522 0.63867801 225
nan nan nan 0
3.7804198 -4.4091339 0.1551291 75
5.4178071 5.8220978 0.18047772 83
4.784534 2.0279582 0.18873334 27
14.962747 -0.32126287 0.64297014 35
nan nan nan 0
3.7235775 -4.3720956 0.15740289 67
5.4480591 5.8076844 0.17514537 84
4.8065515 2.0145679 0.18654896 27
14.961403 -0.37871316 0.64297014 35
nan nan nan 0
3.7446108 -4.4327173 0.16411063 56
5.4776678 5.8005772 0.16990542 84
4.8182292 1.999718 0.18490687 27
14.95507 -0.42818189 0.64275557 35
nan nan nan 0
3.7298162 -4.4450216 0.16816163 52
5.5058813 5.7878103 0.16314727 83
4.8302083 1.9839678 0.18326123 26
14.938423 -0.48250836 0.64211172 35
nan nan nan 0
3.7102249 -4.454731 0.1720642 52
5.5375113 5.7785001 0.15786614 82
4.8513942 1.9719198 0.18195936 26
14.921465 -0.53671443 0.6440739 35
nan nan nan 0
3.6937752 -4.4681816 0.17712337 52
5.566679 5.7644644 0.15246886 82
4.8725557 1.9597427 0.180647 26
14.904423 -0.59080708 0.64342743 35
nan nan nan 0
3.6709545 -4.4738669 0.18085824 52
2.8315384 2.9086859 0.074399218 27
4.8897576 1.943894 0.17823561 27
14.886961 -0.6499787 0.64278102 35
nan nan nan 0
3.6465557 -4.4806905 0.18558735 52
2.8412042 2.8993165 0.071565263 27
4.896235 1.927691 0.17639881 27
14.869754 -0.69863874 0.64213461 35
nan nan nan 0
3.6001797 -4.4537926 0.18798012 52
2.8633857 2.8985839 0.069696322 26
4.9179044 1.9134566 0.17690137 26
14.861503 -0.75805223 0.64971077 35
nan nan nan 0
3.5633707 -4.4446335 0.19395588 54
2.8835912 2.8997412 0.06709791 23
4.9336066 1.900753 0.17539088 26
14.853919 -0.80705965 0.64949262 35
nan nan nan 0
3.4730601 -4.3631077 0.19376589 54
2.9013088 2.8962493 0.064400002 21
4.9546061 1.8880178 0.17403743 26
14.850861 -0.86149651 0.64949262 35
nan nan nan 0
3.4972296 -4.4266715 0.19996154 59
2.9190381 2.8926651 0.061688092 21
4.9709024 1.8733916 0.17251121 26
1.9594051 -0.12087215 0.08571209 27
nan nan nan 0
3.4777894 -4.435389 0.20470308 59
2.9342284 2.884465 0.058172498 15
4.9878049 1.8569301 0.17097796 26
1.9489201 -0.12808059 0.085616782 27
nan nan nan 0
3.462913 -4.4531155 0.20980743 59
2.9478786 2.8777184 0.056086168 8
5.0033698 1.8438567 0.16943774 26
1.9435014 -0.13419864 0.085397817 27
nan nan nan 0
3.432766 -4.4446855 0.212799 58
2.9702153 2.8763289 0.05268221 7
5.0342665 1.8323231 0.16836165 26
1.9329684 -0.14126997 0.085298151 29
nan nan nan 0
3.3965535 -4.4344821 0.21653767 52
2.9951806 2.8793075 0.050036505 5
5.0880284 1.8307997 0.16804467 242
nan nan nan 0
nan nan nan 0
3.3620217 -4.4228849 0.22022386 52
3.0129724 2.8752375 0.04724941 5
6.5497322 2.3296788 0.21360867 71
14.718031 -1.1841846 0.65242589 35
nan nan nan 0
3.2915149 -4.3632326 0.22142872 45
3.0261421 2.8686917 0.0443951 4
6.5669198 2.3112893 0.21148567 72
14.714024 -1.2329848 0.65242589 35
nan nan nan 0
3.0942171 -4.1301103 0.212685 23
3.0444345 2.8639181 0.042313039 4
6.5659757 2.2839448 0.20875539 72
14.694364 -1.2855902 0.65433818 35
nan nan nan 0
3.2518208 -4.3737941 0.22938293 60
3.0585859 2.8561723 0.039442111 5
6.5601921 2.2550139 0.20588373 72
1.9002402 -0.17326981 0.084645167 34
nan nan nan 0
3.2238088 -4.3694739 0.23233286 62
nan nan nan 0
6.5590162 2.2277627 0.20316908 72
1.8995776 -0.18023197 0.0849782 34
nan nan nan 0
3.1810932 -4.3448215 0.23510849 62
3.0868361 2.8404803 0.033679254 4
nan nan nan 0
1.8989043 -0.18719307 0.0849782 34
nan nan nan 0
3.1708972 -4.3643661 0.24025251 62
3.0787852 2.8123028 0.030567423 2
4.0277295 1.3351642 0.12148973 68
1.8981905 -0.19415012 0.085311227 34
nan nan nan 0
3.1430717 -4.35958 0.24405287 62
nan nan nan 0
4.0136166 1.3141785 0.12018025 68
1.8974662 -0.20110603 0.085311227 34
nan nan nan 0
3.1182539 -4.3587441 0.24711399 62
3.066385 2.759048 0.023758162 25
3.975909 1.2849499 0.11598318 64
1.891766 -0.20751621 0.084755749 35
0.84810233 -0.49837488 0.050692499 87
3.0905921 -4.3537116 0.24992026 62
3.0652986 2.7378063 0.02151981 25
3.9520228 1.2612513 0.11515077 38
1.8859853 -0.2138806 0.085527122 35
0.85482287 -0.50654823 0.052074276 87
3.0629578 -4.3484612 0.2545552 60
nan nan nan 0
3.9423561 1.2422637 0.11329172 38
1.8951107 -0.2219537 0.085977271 35
0.86160707 -0.51464051 0.052947961 87
3.0325663 -4.3390074 0.25797984 60
nan nan nan 0
3.9421291 1.2263271 0.11243418 38
1.9091461 -0.23069397 0.086988114 34
nan nan nan 0
3.0043738 -4.3340163 0.26160842 61
nan nan nan 0
3.9514494 1.2133601 0.10968456 39
1.9182159 -0.23892643 0.087102622 33
nan nan nan 0
2.7110593 -3.9416671 0.23983531 74
nan nan nan 0
3.9606533 1.2003188 0.10981719 39
1.9173398 -0.24561688 0.087777376 33
nan nan nan 0
2.6851921 -3.9348691 0.24382265 74
nan nan nan 0
3.9746583 1.1886748 0.10791027 39
1.9065379 -0.25133902 0.086988114 36
nan nan nan 0
2.6734555 -3.9486771 0.24740739 83
nan nan nan 0
3.9838181 1.1755242 0.10659039 39
1.9006393 -0.2576521 0.08709693 37
nan nan nan 0
2.6059451 -3.8795176 0.24656363 83
2.7421982 2.3247304 0.0012548917 27
3.9929347 1.1623222 0.10526702 39
1.8947201 -0.26392537 0.087204009 74
nan nan nan 0
2.599894 -3.9013262 0.25144526 83
2.7357991 2.3013096 -0.0012479103 27
4.0019898 1.1490641 0.10466684 39
1.8789064 -0.26874641 0.086520948 96
nan nan nan 0
2.8112359 -4.2521496 0.2778517 61
2.755729 2.3008802 -0.0031328655 23
4.0158277 1.1371218 0.10346124 39
1.872952 -0.2749036 0.086623654 96
nan nan nan 0
2.7818348 -4.2413883 0.28003219 61
nan nan nan 0
4.0296149 1.1250887 0.10297886 39
1.881795 -0.28325108 0.087412901 96
nan nan nan 0
2.7606912 -4.242981 0.2838985 61
nan nan nan 0
4.0482035 1.1143008 0.10188232 39
1.8955381 -0.29242858 0.088435948 96
nan nan nan 0
2.7422791 -4.2486668 0.28803155 60
2.6724043 2.181891 -0.010236341 20
4.0621181 1.1013695 0.10139033 39
1.9141719 -0.30249012 0.089695379 96
nan nan nan 0
2.7211683 -4.2500677 0.29186693 58
nan nan nan 0
4.0710244 1.0877821 0.098568946 37
1.9179964 -0.31030411 0.089587457 96
nan nan nan 0
2.6974351 -4.2472 0.29451349 58
7.5322299 6.0560675 -0.042171381 22
4.0750003 1.0728581 0.097833484 37
1.9217583 -0.31814504 0.090157732 91
nan nan nan 0
2.6737309 -4.2441697 0.29801452 58
7.4566488 5.9504337 -0.048286073 22
1.1177162 0.28989372 0.026405403 83
1.9156393 -0.32435003 0.090265661 91
nan nan nan 0
2.6474395 -4.2367887 0.30118829 58
3.4373894 2.7224882 -0.025255645 20
1.1090893 0.28332183 0.025976995 86
1.9095006 -0.33051452 0.09037184 91
nan nan nan 0
2.621237 -4.22927 0.30432695 58
3.432081 2.6969037 -0.027425922 18
1.1052812 0.27803764 0.025465725 86
1.9033427 -0.3366383 0.090476282 91
nan nan nan 0
2.5898976 -4.2131128 0.30681136 58
3.4458652 2.6873653 -0.031270795 18
1.1063056 0.27398786 0.024868969 86
1.9021116 -0.343615 0.090138927 96
nan nan nan 0
2.5587399 -4.1968284 0.3083854 58
3.5070689 2.714484 -0.035606079 16
1.1024582 0.26875037 0.024165746 88
1.9008549 -0.3505871 0.089801572 96
nan nan nan 0
2.5329008 -4.1889133 0.3105506 58
3.5645647 2.7381532 -0.03765678 16
1.103436 0.26470786 0.024165746 90
1.8995107 -0.35754299 0.090813629 91
nan nan nan 0
2.1427088 -3.5731256 0.26869521 44
3.6267216 2.7638218 -0.042180512 15
1.1044564 0.26047188 0.023571596 90
1.8982029 -0.36450559 0.090476282 91
nan nan nan 0
2.121851 -3.5679278 0.27062798 44
3.6687045 2.7746196 -0.045761779 14
1.1054076 0.25642303 0.023373542 90
1.8968387 -0.3714574 0.090813629 96
nan nan nan 0
2.0959666 -3.5539885 0.27260232 44
3.7108054 2.7851388 -0.050208651 13
1.0966041 0.25014892 0.022578681 90
1.8905821 -0.37743244 0.09024249 97
nan nan nan 0
2.0727558 -3.5442557 0.27415031 45
3.7454967 2.7887576 -0.054608364 13
1.0926509 0.24503745 0.021696575 92
1.8843071 -0.38336661 0.089673094 97
nan nan nan 0
2.0521472 -3.5387161 0.27600691 45
3.771754 2.7868781 -0.057297733 13
1.0935452 0.24103184 0.021501135 92
1.8779681 -0.38925034 0.090109646 96
nan nan nan 0
2.0315828 -3.5330307 0.27855378 45
nan nan nan 0
1.0895464 0.23596638 0.020821441 94
1.8765442 -0.39613405 0.089774914 96
nan nan nan 0
2.0117264 -3.5269315 0.28036562 45
7.2565351 5.2799253 -0.12531056 32
1.080635 0.22989319 0.020056222 97
1.870212 -0.40196306 0.089207254 97
nan nan nan 0
1.9913232 -3.5210855 0.28215647 44
7.2766638 5.2519574 -0.13314191 32
1.0766261 0.2247228 0.019389603 97
1.863862 -0.40775093 0.088641346 97
nan nan nan 0
1.9709897 -3.5151365 0.28392631 44
7.2713799 5.2077165 -0.14050195 32
1.0774523 0.22077727 0.018813733 97
1.8526045 -0.41240901 0.088177256 98
nan nan nan 0
1.9483031 -3.5047264 0.28532022 44
7.2300649 5.1362405 -0.14861131 75
1.0831711 0.21781547 0.01793509 97
1.8413825 -0.41700014 0.086724617 100
nan nan nan 0
1.9305817 -3.5030205 0.28600666 41
nan nan nan 0
1.0685015 0.21486554 0.015408998 98
1.861043 -0.42145246 0.083646066 98
nan nan nan 0
1.9283179 -3.4989128 0.28146654 48
nan nan nan 0
1.0726482 0.21959779 0.015097492 97
1.8528937 -0.41247338 0.081551626 98
nan nan nan 0
1.948589 -3.5052407 0.27692136 44
7.1749244 5.1785269 -0.16063127 39
1.0718436 0.22352935 0.014524205 97
1.8593421 -0.40676209 0.080105312 97
nan nan nan 0
1.9713466 -3.5157728 0.2733748 44
7.176157 5.2195258 -0.15798758 39
1.0807581 0.22972222 0.014656845 97
1.8656887 -0.40133157 0.078983285 97
nan nan nan 0
1.9892937 -3.5174968 0.26911458 44
7.2336326 5.3019776 -0.15654808 32
1.0847977 0.23473977 0.014529451 97
1.8671874 -0.39449927 0.077984057 97
nan nan nan 0
2.0097275 -3.523427 0.26586372 45
3.7960975 2.8038409 -0.080728009 15
1.0888151 0.23979001 0.014400311 97
1.8735521 -0.38867608 0.077186339 97
nan nan nan 0
2.0302298 -3.5292521 0.2625812 45
3.7692862 2.8064704 -0.078745566 13
1.087929 0.24377911 0.014400311 96
1.8750035 -0.38181457 0.076184452 97
nan nan nan 0
2.0508227 -3.5350103 0.25855377 45
3.7230062 2.7932804 -0.076366939 13
1.0919051 0.24887653 0.014269426 94
1.8862278 -0.3769055 0.075575143 97
nan nan nan 0
2.0739813 -3.5449309 0.25551575 45
3.6928248 2.7918484 -0.07434085 14
1.0958561 0.25400579 0.014333129 90
1.8876351 -0.36999714 0.074567981 96
nan nan nan 0
2.0972388 -3.5547273 0.25243568 44
3.6507926 2.7811584 -0.070494562 15
1.0949154 0.25802004 0.014529461 90
1.8890041 -0.36308107 0.073896527 91
nan nan nan 0
2.1205726 -3.5643618 0.2500374 44
3.596951 2.7610352 -0.06964986 15
1.0939696 0.2620331 0.013940461 90
1.8854746 -0.35524172 0.072030276 91
nan nan nan 0
2.1472631 -3.577888 0.2457158 46
3.5072787 2.7136674 -0.065018162 16
1.0881392 0.26485735 0.014269426 92
1.8916898 -0.34923816 0.071882114 96
nan nan nan 0
2.542949 -4.2022171 0.28492954 58
3.438184 2.6804104 -0.062396884 18
1.0871636 0.26884443 0.014073964 92
1.8979108 -0.34319818 0.071058981 96
nan nan nan 0
2.5636876 -4.201643 0.28035447 58
3.412627 2.6806536 -0.060595859 20
1.0958687 0.27526319 0.014199625 86
1.9041125 -0.33711722 0.070230581 96
nan nan nan 0
2.5897112 -4.2095156 0.27545384 58
7.4250278 5.8765693 -0.12561114 38
1.0996946 0.28051305 0.014460534 86
1.9102707 -0.33099121 0.070073679 96
nan nan nan 0
2.6184061 -4.2214112 0.27251014 58
7.4298024 5.926888 -0.12275781 38
1.1034991 0.28579524 0.014524237 86
1.9164335 -0.32482859 0.069236539 91
nan nan nan 0
2.6472468 -4.2331915 0.26865128 58
2.7044804 2.173681 -0.042392991 28
1.1072769 0.2911084 0.014787762 83
1.9225527 -0.31862128 0.0690744 87
nan nan nan 0
2.6735198 -4.2405515 0.26535133 58
2.6809647 2.1710024 -0.040944461 30
1.1110332 0.29645377 0.014852338 83
1.9237431 -0.31157839 0.068054013 87
nan nan nan 0
2.6972272 -4.2435985 0.26087877 58
2.6644986 2.175436 -0.039024722 30
1.1146594 0.30221963 0.014916914 83
1.9150885 -0.30263498 0.066689849 96
nan nan nan 0
2.722497 -4.2456131 0.25549433 58
2.6530428 2.181561 -0.03716955 30
1.118416 0.30743316 0.01518393 73
1.8963397 -0.29322997 0.065667421 96
nan nan nan 0
2.7448101 -4.249332 0.25183874 61
2.6642942 2.2072308 -0.03562852 27
1.1172817 0.31153029 0.01518393 60
1.8727181 -0.28255337 0.064151272 97
nan nan nan 0
2.7605085 -4.2394619 0.24654113 62
2.6600342 2.2201924 -0.034470554 27
1.1209432 0.31698367 0.015249378 50
1.8638862 -0.2742376 0.062826321 97
nan nan nan 0
2.5267792 -3.8495815 0.21957181 83
2.6557233 2.2331598 -0.032097891 27
1.1486065 0.32935765 0.015850615 39
1.8747828 -0.26882443 0.062829062 97
nan nan nan 0
2.5657797 -3.8779407 0.2176574 83
2.6284623 2.226733 -0.029461671 28
3.9942484 1.1611925 0.056630693 39
1.8856651 -0.26333505 0.06282831 74
nan nan nan 0
2.5939367 -3.8894439 0.21474665 83
2.5894814 2.2108443 -0.027931063 28
3.9851699 1.1744111 0.056562625 39
1.9015052 -0.2584455 0.062318251 37
nan nan nan 0
2.6138723 -3.888386 0.21029924 83
2.5927465 2.2301137 -0.025666568 28
3.9760301 1.1875732 0.05794305 39
1.9074048 -0.25213069 0.062144738 36
nan nan nan 0
2.678643 -3.9533658 0.2101676 87
2.6072395 2.2592583 -0.023483222 28
3.9620702 1.1992383 0.058525916 39
1.9132726 -0.24577472 0.062306155 33
nan nan nan 0
2.7129376 -3.972548 0.20750859 74
2.6064808 2.2753808 -0.02234355 28
3.9528682 1.212286 0.058455233 39
1.9191518 -0.23938315 0.061454918 33
nan nan nan 0
2.7360985 -3.9750993 0.20310166 74
2.6018865 2.288228 -0.020561602 28
3.9436243 1.2252825 0.058384553 39
1.9051638 -0.23055016 0.059973717 34
0.87730473 -0.52838904 0.042028829 86
2.804893 -4.0432363 0.20108454 75
2.6155424 2.3181086 -0.018299691 29
3.9390874 1.2397224 0.05982605 38
1.8911055 -0.22181922 0.059505172 35
0.86638713 -0.51749557 0.040885378 86
3.0201845 -4.3196855 0.21077529 60
3.058327 2.7306204 -0.018605145 25
3.9392602 1.2556634 0.061341707 38
1.8869505 -0.21432365 0.059017539 35
0.85110223 -0.50414276 0.039557826 87
3.0648797 -4.349577 0.20812982 60
nan nan nan 0
3.9534395 1.2769262 0.0616384 40
1.8927217 -0.20795536 0.058175866 35
0.8572818 -0.50356776 0.038889986 87
3.0896039 -4.3507109 0.20312825 62
nan nan nan 0
3.9815197 1.3036691 0.063620038 68
1.8985211 -0.20088276 0.057995357 34
nan nan nan 0
3.1158743 -4.3506026 0.19902901 62
3.0761428 2.80792 -0.012357785 2
4.0104074 1.3278686 0.063414156 71
1.8991969 -0.19458799 0.057328943 34
nan nan nan 0
3.142096 -4.3566232 0.19414745 62
nan nan nan 0
4.0623751 1.3616172 0.065810286 71
1.8999072 -0.18762676 0.056995735 34
nan nan nan 0
3.1698921 -4.3613811 0.19016483 62
3.0659955 2.8411314 -0.0065659257 5
nan nan nan 0
1.8956069 -0.18018906 0.056846529 34
nan nan nan 0
3.1918387 -4.3579021 0.18674621 62
3.0445995 2.8421168 -0.0036346477 5
11.608227 3.9857054 0.19709155 186
nan nan nan 0
nan nan nan 0
3.1544704 -4.2739325 0.17900114 55
3.0305202 2.8498318 -0.0014521139 5
11.659654 4.0511961 0.19821548 28
14.707245 -1.2893038 0.43301693 35
nan nan nan 0
3.1016304 -4.1702628 0.16968568 40
3.0164247 2.8574815 0.0014503684 5
11.734272 4.1253848 0.20408265 24
14.726889 -1.2366514 0.43087736 33
nan nan nan 0
3.0900078 -4.1229925 0.16372098 23
3.0049291 2.8695664 0.0036259207 5
5.1005545 1.8162259 0.088835016 242
14.751812 -1.1791289 0.42629445 32
nan nan nan 0
3.1217182 -4.1306472 0.15818949 22
2.9845803 2.8691175 0.006503094 5
5.0709538 1.824656 0.090306081 33
1.9285585 -0.14771731 0.055378713 31
nan nan nan 0
3.1990216 -4.2038808 0.15770809 20
2.9663579 2.8735969 0.0079290261 5
5.0454407 1.8363901 0.089970998 27
1.9390755 -0.14137606 0.05498625 29
nan nan nan 0
3.4061 -4.4421258 0.16124612 56
2.9486427 2.8774598 0.011505195 7
5.0104976 1.8444971 0.091332108 26
1.9445765 -0.13461389 0.054787397 28
nan nan nan 0
3.4384987 -4.4488974 0.15705921 58
2.9345043 2.8847361 0.014364029 15
4.994288 1.8593436 0.093951434 26
1.950044 -0.12781262 0.054927878 27
nan nan nan 0
3.4640772 -4.4482012 0.15255806 58
2.9168003 2.8884306 0.016478483 21
4.9734039 1.872352 0.093687035 26
nan nan nan 0
nan nan nan 0
3.4897106 -4.4473944 0.14704399 59
2.9026453 2.8955615 0.019320723 21
4.9568028 1.8878642 0.095362268 26
14.859206 -0.86458284 0.41055757 35
nan nan nan 0
3.3107679 -4.1876493 0.1341947 36
2.8814223 2.8955379 0.02210187 23
4.9404888 1.9024142 0.097030506 26
14.862276 -0.81011528 0.41055757 35
nan nan nan 0
3.5254719 -4.4257793 0.13828611 54
2.8632455 2.8994539 0.024892602 26
4.9194756 1.9150565 0.098598383 26
14.870137 -0.75589061 0.41069543 35
nan nan nan 0
3.5323575 -4.4012256 0.13299486 54
2.8455858 2.9027743 0.027669363 27
4.9030871 1.9294006 0.1002509 26
14.877872 -0.70162261 0.40823376 35
nan nan nan 0
3.4322426 -4.2445221 0.12387284 55
nan nan nan 0
4.8913207 1.9455042 0.10107452 26
14.895465 -0.64774531 0.40344036 35
nan nan nan 0
3.41944 -4.1971326 0.11718272 55
5.5685053 5.7643423 0.06574668 82
4.8748484 1.9596764 0.10271655 26
14.912722 -0.59374291 0.40384609 35
nan nan nan 0
3.4253366 -4.1730418 0.11308907 55
5.5403953 5.7774701 0.069855914 82
4.8537383 1.9718856 0.10242335 26
14.929923 -0.53962773 0.39903691 35
nan nan nan 0
3.4406822 -4.1605482 0.10743538 40
5.5088058 5.7868376 0.075302854 83
4.8325548 1.9839461 0.10486542 27
14.946857 -0.48539221 0.39682734 35
nan nan nan 0
3.4623668 -4.1556616 0.10291411 40
5.4806533 5.7996821 0.080779441 84
4.8159819 1.9977999 0.10648473 27
14.963524 -0.43103769 0.39722523 35
nan nan nan 0
3.5001297 -4.1698136 0.098829068 40
5.4490476 5.8087378 0.087577984 84
4.8039827 2.0134912 0.10820089 27
14.969999 -0.37631634 0.39735785 35
nan nan nan 0
3.5315738 -4.1760955 0.095464654 38
5.419858 5.8222642 0.091632992 84
4.7919497 2.0291286 0.10900529 27
14.956424 -0.32112712 0.391738 35
nan nan nan 0
3.5508885 -4.1663833 0.089819342 35
5.3882585 5.8310261 0.097002983 84
4.7706571 2.040765 0.1105024 27
nan nan nan 0
nan nan nan 0
3.5954959 -4.1875358 0.085741088 35
5.3600435 5.8433156 0.10241655 84
4.7493424 2.0522723 0.11198902 28
6.0473218 -0.085497692 0.15837052 25
nan nan nan 0
3.6173997 -4.1819358 0.08203619 34
5.3284435 5.851778 0.10774806 84
4.7326083 2.0656586 0.11267388 28
6.0476494 -0.063333154 0.15625939 25
nan nan nan 0
3.6458955 -4.1837883 0.076521531 33
5.3002028 5.8637929 0.11313012 85
4.7203951 2.0809584 0.11436555 29
6.0478411 -0.041166984 0.15625939 25
nan nan nan 0
3.6777401 -4.1892323 0.072001547 32
5.2698789 5.877502 0.11987595 85
4.702817 2.0957963 0.11683977 29
6.0429602 -0.01687517 0.15613027 25
nan nan nan 0
3.7659707 -4.258153 0.069453642 53
5.2415967 5.8892446 0.12522821 85
4.6859498 2.1088991 0.11840662 29
6.0479803 0.0031667154 0.15625939 25
nan nan nan 0
3.7948952 -4.2592964 0.064719781 53
5.2141027 5.8934712 0.13048357 85
4.6656079 2.1173954 0.11984956 30
6.0529351 0.023241717 0.15638854 25
nan nan nan 0
3.802351 -4.2392774 0.060630716 39
5.1858239 5.9049773 0.13443266 85
4.6487079 2.1303079 0.12050819 30
6.06286 0.045502108 0.15453044 24
nan nan nan 0
3.8212554 -4.2290673 0.054715227 35
5.1531801 5.9134488 0.1410211 84
4.627202 2.1410081 0.12282439 34
6.0726485 0.067834958 0.15478522 24
nan nan nan 0
3.8644202 -4.2439651 0.051092092 31
5.1281357 5.9284391 0.14640367 84
4.6102271 2.1537039 0.12435977 34
6.0723596 0.090091869 0.15478522 25
nan nan nan 0
3.907016 -4.2592802 0.046404313 31
5.0997739 5.9395103 0.15304863 84
4.6067634 2.1726906 0.12714887 21
6.0769858 0.11244003 0.15491261 25
nan nan nan 0
3.9565549 -4.2816758 0.042735748 31
5.0714145 5.9504695 0.15831149 84
4.6032419 2.1916902 0.12905332 9
6.086503 0.1359964 0.1551674 25
1.5291113 -0.64529294 0.031867754 29
4.0063124 -4.3037677 0.037971117 33
5.0398307 5.9575043 0.16209365 84
4.5771375 2.1998765 0.12943356 6
6.0910149 0.15843503 0.15316792 25
1.5361042 -0.64162147 0.030511009 29
4.0255008 -4.2927246 0.032867867 33
5.0114393 5.9681687 0.16868685 84
4.555491 2.2100627 0.13170253 6
6.0953894 0.18090694 0.15329358 25
nan nan nan 0
4.0412259 -4.2779608 0.027732305 38
4.9798341 5.9748616 0.17514992 85
4.5114074 2.2091393 0.13241589 6
6.0996814 0.20341304 0.15341923 25
1.7952695 -0.73446411 0.034196205 80
0.51702094 -0.54330504 0.0030106851 40
4.9546361 5.9891262 0.18046391 85
4.4763322 2.2123411 0.13423979 7
6.1038628 0.22595203 0.15461093 25
1.7840587 -0.72225571 0.033259958 80
0.51209021 -0.53418934 0.0023247746 40
4.9262266 5.9994206 0.1856513 85
4.4458089 2.2175674 0.13443503 7
6.098053 0.24812128 0.15235405 25
1.7867149 -0.71572036 0.031916246 80
0.50719094 -0.52502817 0.0016563159 40
4.8946481 6.0057101 0.1907016 84
4.433145 2.2315786 0.13603225 7
6.1020956 0.27069157 0.15247881 22
1.784694 -0.707331 0.030828169 87
0.50562561 -0.51958317 0.0010122906 40
4.866209 6.0157051 0.19720782 84
4.3981357 2.2341979 0.13779327 7
6.1210332 0.2940143 0.15297793 22
1.7779756 -0.69713897 0.030000977 89
0.50752693 -0.51772684 0.00050614541 49
4.8377604 6.0255694 0.20369647 84
4.3720617 2.2411499 0.13980731 6
6.1348634 0.31722 0.15442443 21
1.7898505 -0.69423723 0.029487923 87
0.50942123 -0.51586336 0 49
4.812438 6.0392385 0.20895587 84
4.3149214 2.2318676 0.14078647 6
6.148632 0.34053251 0.15480138 18
1.8110633 -0.69483936 0.029117977 87
0.5077821 -0.5104478 -0.0006283184 49
4.7829223 6.0497146 0.21406943 84
4.2845364 2.2360942 0.14090578 6
6.1623654 0.36395329 0.15302351 17
1.8276392 -0.69352508 0.027978417 81
0.50610971 -0.50505078 -0.0012479097 49
4.7544055 6.0591612 0.2218574 82
4.2673798 2.2470791 0.14398137 7
1.2770792 0.080123231 0.032389853 36
1.8396508 -0.69001383 0.028121529 81
0.50795692 -0.50319189 -0.0016222821 49
4.7259517 6.0685668 0.22559683 82
4.2281976 2.2462797 0.14377259 9
1.2668132 0.084141634 0.031693634 37
1.8421853 -0.6832732 0.026749834 81
0.50275254 -0.49422604 -0.0023378641 40
4.6974435 6.0777812 0.23200713 81
4.1846304 2.2428389 0.14505793 13
1.2415599 0.087036073 0.03128697 39
1.8399922 -0.67479843 0.025997661 82
0.48308873 -0.47142655 -0.0027096164 40
4.6689272 6.0868635 0.23839979 80
4.1543336 2.2462399 0.1467673 16
1.2063384 0.089011326 0.030407412 47
1.8424655 -0.66805452 0.024971494 82
0.44530869 -0.43138343 -0.0029216704 40
4.64043 6.0958481 0.24343771 80
4.1065192 2.2398767 0.14781876 25
1.1711196 0.090729587 0.02952786 69
1.8449099 -0.6613 0.02428738 82
0.40724215 -0.39162415 -0.0030569292 38
4.6149406 6.1086912 0.24862385 80
4.0676103 2.2380371 0.14752357 31
1.140892 0.092595682 0.028574182 181
1.8426203 -0.65286803 0.02320186 84
0.38335627 -0.36595938 -0.0034225667 38
4.583396 6.1133938 0.25480491 78
6.9606929 3.8631406 0.25713393 60
1.1305839 0.095931433 0.028324625 192
1.8450084 -0.64611268 0.022519484 85
0.37380561 -0.35423264 -0.0036852311 38
4.5578675 6.125998 0.25996894 77
6.9594507 3.895884 0.2617943 60
1.1252408 0.099633299 0.028397007 192
1.837922 -0.6360783 0.021725407 85
0.3715187 -0.34936771 -0.0040054894 38
4.5322795 6.1384578 0.26645765 76
6.9668026 3.9336052 0.2654072 60
1.1198908 0.10329774 0.028271357 203
1.840248 -0.62934017 0.021046514 86
0.36913919 -0.34458938 -0.0044069001 38
4.503705 6.1467767 0.27275857 76
nan nan nan 0
1.1095486 0.1064465 0.028214598 203
1.8378125 -0.62099284 0.02031526 89
0.37039736 -0.34323195 -0.0047594421 38
4.4751272 6.1549649 0.27904183 76
7.0068679 4.0242472 0.27652141 59
1.1041723 0.11001641 0.028281745 171
1.8354472 -0.61235154 0.019587494 90
0.37165034 -0.34186971 -0.0051119821 38
4.4494705 6.1670737 0.28549501 76
7.0135641 4.0623507 0.28162029 59
1.1037617 0.11406267 0.028281745 171
1.8281887 -0.60249239 0.01881435 90
0.37289813 -0.34050277 -0.0054645194 38
4.4208736 6.1750107 0.29174733 76
7.0200739 4.1005564 0.28674531 59
1.1083013 0.11863888 0.02860368 171
1.835145 -0.59733725 0.018189551 90
0.3741999 -0.33906579 -0.0058170534 38
4.3951688 6.1868896 0.29817829 76
7.0306993 4.1413984 0.29207525 59
1.107859 0.12270021 0.02860368 120
1.832568 -0.5890789 0.017470505 93
0.37171981 -0.33434576 -0.0061085001 38
4.3665853 6.1946182 0.30307689 75
7.0453677 4.1848965 0.29904819 59
1.1173286 0.12789617 0.029056501 85
1.8251895 -0.57933486 0.016711315 94
0.3766689 -0.33630797 -0.0065221135 38
4.3380027 6.2022185 0.30796134 75
7.0599432 4.2286367 0.30176091 59
1.1218213 0.13257776 0.028988482 85
1.8225377 -0.57114869 0.015667643 94
0.38537669 -0.3415525 -0.0071905227 38
4.3122382 6.2137494 0.31435856 75
7.0741992 4.2724833 0.30737066 57
1.1213228 0.13668793 0.02918564 105
1.8198475 -0.56298888 0.014961681 96
0.39788288 -0.35004112 -0.0077699269 37
4.2835793 6.2210097 0.3218531 75
7.0881329 4.316433 0.31591386 57
1.1158447 0.1401726 0.029449066 105
1.8171169 -0.55485487 0.014922412 96
0.42558569 -0.37152374 -0.0084802359 35
4.2577715 6.2323089 0.3282271 75
