# .PCD v0.7 - Point Cloud Data file format
VERSION 0.7
FIELDS x y z intensity
SIZE 4 4 4 4
TYPE F F F F
COUNT 1 1 1 1
WIDTH 1476
HEIGHT 1
VIEWPOINT 0 0 0 1 0 0 0
POINTS 1476
DATA ascii
4.9803529 5.9754844 0.13442206 84
4.5166321 2.2116978 0.096563123 7
6.1107082 0.20378077 0.10458724 25
1.790826 -0.73264623 0.019925198 82
0.52746177 -0.55408299 -0.0010681411 36
4.9519839 5.9859204 0.13967292 82
4.481576 2.2149327 0.097732209 6
6.1148982 0.22636053 0.10574075 25
1.7842398 -0.72232908 0.01881435 82
0.51564538 -0.53771001 -0.0016903499 49
4.9235873 5.9962063 0.14626388 82
4.4420671 2.2157011 0.099647239 6
6.114027 0.24877124 0.10574075 24
1.7823647 -0.71361679 0.018095305 86
0.51066393 -0.52862328 -0.0021807856 49
4.8951778 6.0063605 0.15283731 82
4.4204741 2.2252002 0.10193747 6
1.2485856 0.055387788 0.021597374 78
1.7803255 -0.70524019 0.01737975 90
0.50562239 -0.51957983 -0.0027837933 96
4.8699183 6.0202909 0.15814464 82
4.3810587 2.225523 0.10293199 6
1.2533677 0.060203567 0.021683764 78
1.7689387 -0.69323945 0.016580418 91
0.50752187 -0.51772165 -0.003289934 96
4.8383436 6.0262957 0.16458258 82
4.3505816 2.230139 0.10496826 6
1.2631198 0.065313093 0.022077292 78
1.7761374 -0.68856168 0.01562663 91
0.50941426 -0.51585627 -0.0037960734 96
4.8068051 6.0321693 0.16964802 83
4.3068419 2.2276886 0.1049559 6
1.2628796 0.069942638 0.021635791 83
1.7926641 -0.68742132 0.014409302 91
0.51129842 -0.51398259 -0.0045552794 96
4.7783875 6.041811 0.17480589 82
4.2720094 2.2295563 0.10682983 6
1.2576243 0.074276105 0.021550275 83
1.8092009 -0.68616718 0.01384645 86
0.50972605 -0.5084821 -0.0050265072 96
4.7530289 6.0552297 0.18141018 82
4.2327981 2.2288694 0.10855889 8
1.2673187 0.079510868 0.021942932 39
1.8163894 -0.68128902 0.013205058 81
0.50803035 -0.50308907 -0.0056155389 49
4.727632 6.0685396 0.1880056 81
4.2113066 2.2373061 0.11071549 8
1.272007 0.084486611 0.022029322 39
1.8095028 -0.67115116 0.012463309 81
0.50273687 -0.49421066 -0.0060291663 49
4.6991825 6.0778389 0.19178392 80
4.1854382 2.2432718 0.11108007 8
1.2617185 0.08844924 0.021635791 39
1.8072641 -0.66279572 0.011087142 83
0.48664865 -0.47490048 -0.0065274308 49
4.6706848 6.0869551 0.19822989 79
4.1639447 2.2514365 0.11320784 9
1.2464286 0.091969445 0.02137924 73
1.8049843 -0.6544643 0.010388149 84
0.45247212 -0.43832284 -0.0064872741 40
4.6421814 6.0959406 0.20465828 78
4.1249132 2.2499096 0.11401117 24
1.2311304 0.095378771 0.02112269 73
1.8074872 -0.64753008 0.0097179515 85
0.41443101 -0.39853731 -0.0063223275 38
4.6136484 6.1047645 0.21240459 78
4.173481 2.2962883 0.1197449 255
1.2158127 0.098676302 0.021504832 103
1.8098484 -0.64090091 0.0097179515 85
0.38340268 -0.36587578 -0.0061050262 38
4.5821562 6.1095185 0.21732002 78
6.9358706 3.8493648 0.20079178 61
1.2054875 0.1022871 0.020906258 117
1.807472 -0.63261354 0.0083557367 86
0.37384751 -0.35414851 -0.00647151 38
4.5536494 6.1180987 0.22369121 77
6.9434299 3.8869157 0.20559089 61
1.1901616 0.10538163 0.020855624 120
1.8097812 -0.6259855 0.0076872823 88
0.37149748 -0.34934774 -0.0067646974 38
4.5281086 6.1305685 0.23019576 77
6.968214 3.9344022 0.21094312 61
1.1748294 0.10836523 0.020799754 120
1.8120658 -0.61934894 0.0070188255 90
0.36911726 -0.34456891 -0.0070509012 38
4.5025573 6.1429615 0.23536208 77
6.9840531 3.977174 0.21607366 59
1.1594951 0.1112382 0.020535352 120
1.8143259 -0.61270398 0.0063503683 90
0.37037396 -0.34321028 -0.0074034212 38
4.4740353 6.1512051 0.2403634 78
6.9954014 4.017662 0.21828787 59
1.149114 0.11469683 0.020157529 125
1.8213061 -0.60763371 0.0050265421 93
0.37162352 -0.34184504 -0.0079321954 38
4.448411 6.1633377 0.2468387 78
7.0107698 4.0607324 0.22489083 59
1.1437134 0.11839303 0.020070266 125
1.814025 -0.59782469 0.0043336488 93
0.37662151 -0.34378219 -0.0083667329 38
4.4187417 6.1720333 0.25446326 77
7.0172806 4.0989246 0.23125809 59
1.1432611 0.12258301 0.02067231 122
1.8067976 -0.58776146 0.0043109595 93
0.37417108 -0.33903968 -0.0085490867 38
4.3930664 6.1839299 0.26091543 77
7.0322499 4.1423116 0.23652709 59
1.1527379 0.1278744 0.021054493 119
1.8041807 -0.57960641 0.0036381364 94
0.37540665 -0.33766192 -0.0089015905 38
4.3645077 6.1916709 0.26586032 77
7.0427299 4.1833296 0.2402555 58
1.1671687 0.13380755 0.020916665 78
1.7967631 -0.56996679 0.0023029612 95
0.38036364 -0.33960682 -0.0095237084 38
4.3387589 6.2033 0.27361244 76
7.0571804 4.2269816 0.24846046 56
1.1716239 0.13867083 0.021623416 78
1.7988397 -0.56337738 0.0026319555 96
0.38534448 -0.34152395 -0.009796815 38
4.3130345 6.2148972 0.2787132 76
7.0715485 4.2708826 0.25095895 56
1.1512623 0.14054145 0.021054493 78
1.7961168 -0.55530405 0.0013124874 97
0.40541425 -0.3565414 -0.010837765 38
4.2843919 6.2221899 0.28625631 75
7.0812688 4.312253 0.25910521 56
1.1308919 0.14226332 0.021089355 103
1.7933578 -0.5472579 0.0013089968 97
0.42931077 -0.37477565 -0.011638791 36
4.2558069 6.2294331 0.2911447 75
7.0951891 4.3564587 0.26165161 56
1.120451 0.14512347 0.020707171 106
1.7905643 -0.53923953 0 98
nan nan nan 0
4.2299991 6.2406411 0.29753113 73
7.1087604 4.4007502 0.26858792 56
1.1149526 0.14856838 0.020811863 107
1.7878286 -0.5309369 -0.0003255039 98
nan nan nan 0
4.2069511 6.2558846 0.30411014 73
7.122138 4.4452224 0.27410764 56
1.1094441 0.15197495 0.02091481 114
1.7897624 -0.52438051 -0.00097651168 99
nan nan nan 0
4.1810727 6.2668839 0.31048304 73
7.135282 4.4898491 0.27966389 56
1.1039257 0.15534312 0.021016011 235
1.7868683 -0.51642883 -0.001623156 102
nan nan nan 0
4.1524096 6.2736063 0.31663674 73
7.1439729 4.5319538 0.28508836 56
1.0983975 0.15867288 0.021115465 255
1.7887485 -0.50987595 -0.002272418 103
nan nan nan 0
4.1264925 6.2843742 0.32298735 73
7.1566558 4.5768723 0.29071516 56
1.0928636 0.16196479 0.021020351 255
1.7857913 -0.50196332 -0.0025900675 103
nan nan nan 0
4.0978231 6.2908468 0.32911006 74
7.1690588 4.6219144 0.29786718 56
1.0972012 0.16671966 0.02130916 245
1.7876182 -0.49541438 -0.0032375839 103
nan nan nan 0
4.0718064 6.3012862 0.33805722 73
7.1644192 4.6561847 0.30584732 66
1.1015111 0.17150736 0.02198885 245
1.7894219 -0.48885912 -0.0032375839 103
nan nan nan 0
4.0485549 6.3159671 0.3432948 73
9.7261248 6.3718739 0.41823211 31
1.1008788 0.17554402 0.021794282 245
1.7961123 -0.48328334 -0.0042202026 103
nan nan nan 0
4.0225368 6.3262935 0.3496086 70
9.6910686 6.3973656 0.42579988 31
1.1002244 0.17957717 0.02198885 245
1.7930371 -0.47541511 -0.0048563727 103
nan nan nan 0
4.0018229 6.3449583 0.35638797 70
9.6340904 6.4105735 0.43039328 31
1.099555 0.18360785 0.022183416 255
1.7899289 -0.46757621 -0.0051661674 105
nan nan nan 0
nan nan nan 0
9.5811682 6.4261484 0.43916026 31
1.0939354 0.1867933 0.022665016 255
1.7916306 -0.46101263 -0.0051661674 108
nan nan nan 0
4.7895126 7.7186756 0.44904506 80
9.5365982 6.4470572 0.44624579 30
1.088315 0.18994136 0.02275574 255
1.798154 -0.45567083 -0.0055038873 108
nan nan nan 0
4.7609415 7.7357736 0.45855746 73
nan nan nan 0
1.0826863 0.19305077 0.022844719 255
1.8046615 -0.45028722 -0.0061679818 122
nan nan nan 0
4.7297444 7.7485652 0.46622762 73
7.6313138 5.2409358 0.36858952 20
1.0819675 0.19701698 0.023036662 255
1.8062989 -0.44366953 -0.0064926115 122
nan nan nan 0
4.6959281 7.7569532 0.47362787 73
7.6077328 5.2658796 0.37485012 20
1.0763195 0.200067 0.023123022 255
1.8031265 -0.43555596 -0.0071226708 106
nan nan nan 0
4.663466 7.7643805 0.48101035 71
7.6087055 5.3079066 0.38071969 20
1.0755708 0.20400904 0.023505162 255
1.8047096 -0.42894399 -0.0074464269 105
nan nan nan 0
4.6322055 7.7767673 0.48864457 71
7.7320151 5.4361677 0.39449403 64
1.0748119 0.20794904 0.023696231 255
1.8111355 -0.42346424 -0.0081157554 103
nan nan nan 0
4.6008692 7.7889495 0.49784857 71
9.1629391 6.4925251 0.47460237 30
1.0789428 0.21285376 0.023996374 255
1.812674 -0.41682294 -0.0084403828 101
nan nan nan 0
3.3205538 5.6688099 0.36730549 255
9.1388102 6.5258722 0.48244223 30
1.0781512 0.21680602 0.024188314 245
1.8093113 -0.40907338 -0.0087414486 101
nan nan nan 0
3.2118049 5.5295267 0.36423334 73
3.5395665 2.5471852 0.19115973 28
1.0871308 0.22276045 0.024989257 109
1.8107983 -0.40243918 -0.0087414486 100
nan nan nan 0
3.1913564 5.5409837 0.36981359 73
9.0415792 6.5570436 0.49741164 30
1.0960892 0.22878532 0.025409812 109
1.8123289 -0.39548296 -0.0090652034 100
nan nan nan 0
3.1653728 5.5382538 0.3745144 51
8.9953718 6.5691619 0.5019092 30
1.1050954 0.23449214 0.026031028 108
1.8136288 -0.38947052 -0.0093889581 100
nan nan nan 0
3.1256733 5.5201116 0.38021356 32
8.9524136 6.5930562 0.51265216 31
1.1041317 0.23892345 0.026622534 108
1.8200703 -0.38321722 -0.0094142659 100
nan nan nan 0
3.0759385 5.4790168 0.38210726 32
8.9211054 6.6181531 0.5180077 31
1.1081257 0.24404277 0.026938373 101
1.8312538 -0.37856781 -0.0097912522 98
nan nan nan 0
2.9706612 5.3372245 0.37894765 38
8.8683481 6.6295447 0.52797258 31
1.1169603 0.25028431 0.027974842 101
1.8473309 -0.37483653 -0.0095408019 97
nan nan nan 0
2.9292207 5.3084631 0.38145241 38
8.8158445 6.6408033 0.53208464 31
1.1257775 0.25659701 0.028420689 103
1.8535944 -0.36903918 -0.009895971 97
nan nan nan 0
3.055593 5.5857825 0.40838245 74
8.7631521 6.6515942 0.54192048 31
1.1394229 0.26410404 0.029402209 103
1.8598417 -0.36320123 -0.0099221505 96
nan nan nan 0
3.0348945 5.5965657 0.41504961 77
8.7145357 6.6651759 0.55001897 32
1.1092366 0.26139489 0.02944392 115
1.8660729 -0.35732278 -0.0096167233 95
nan nan nan 0
3.0370638 5.6005664 0.42204687 74
8.7496138 6.6920042 0.56765306 30
1.1091902 0.26138395 0.031233992 120
1.8709962 -0.35826552 -0.0066496907 96
nan nan nan 0
3.0553515 5.585341 0.41616079 74
8.7663631 6.6540313 0.56137592 31
1.110146 0.25731805 0.031035099 105
1.8500435 -0.36128777 -0.0059218924 96
nan nan nan 0
2.9177642 5.2855201 0.39042047 40
8.8170185 6.6368647 0.56097811 31
1.1111541 0.25285593 0.031631775 105
1.8436793 -0.36773428 -0.0042655808 96
nan nan nan 0
3.0464854 5.4712062 0.40056849 32
8.8654451 6.6225519 0.55863839 31
1.1023183 0.24659933 0.031354304 105
1.8374212 -0.37349364 -0.0032724906 97
nan nan nan 0
3.0862365 5.4951129 0.39762214 32
8.901927 6.5991092 0.55359262 31
1.0934571 0.24041213 0.030881431 108
1.8261822 -0.37851655 -0.0029295338 97
nan nan nan 0
3.1217844 5.5154886 0.39540145 32
8.9520683 6.5903921 0.55145872 31
1.0942843 0.23659264 0.031076834 112
1.8151332 -0.38250852 -0.001942551 98
nan nan nan 0
3.1613996 5.5335431 0.39201951 51
8.9976273 6.5708089 0.54880834 30
1.0952252 0.23219799 0.031076834 112
1.8135837 -0.389792 -0.00097127561 100
nan nan nan 0
3.1823242 5.5275316 0.38898695 61
9.05583 6.5673785 0.54906982 30
1.091091 0.22754334 0.031132625 112
1.8122814 -0.39580399 0 100
nan nan nan 0
3.2302978 5.5635996 0.38672101 73
3.5307188 2.5408182 0.21046315 28
1.0772336 0.22053653 0.03052189 245
1.8107481 -0.40275967 0.0006475171 100
nan nan nan 0
nan nan nan 0
9.1391344 6.5212884 0.53535515 30
1.0732148 0.21522874 0.030192114 255
1.8139931 -0.4111304 0.00097389368 100
nan nan nan 0
4.6039028 7.7909799 0.52813578 72
9.1631269 6.4878554 0.53143603 30
1.0739964 0.21129376 0.030192114 255
1.807601 -0.41665301 0.001942551 101
nan nan nan 0
4.6325011 7.7803521 0.52052528 71
7.6935105 5.4090962 0.44022438 64
1.0697892 0.20678358 0.029864082 255
1.8062088 -0.42264482 0.0022663092 101
nan nan nan 0
4.6690245 7.7705612 0.51477051 71
7.6292429 5.3182755 0.43206853 20
1.0706054 0.20248652 0.030054251 255
1.8142236 -0.43220901 0.0035805407 103
nan nan nan 0
4.7028785 7.7623172 0.5074175 73
7.6118984 5.2648339 0.42513412 20
1.07626 0.19947299 0.030001074 255
1.8223459 -0.44120854 0.0039269878 105
nan nan nan 0
4.734129 7.7496638 0.49977189 73
7.6313868 5.2370667 0.41867265 21
1.0769891 0.1955279 0.02981003 255
1.8255703 -0.44907883 0.004593702 106
nan nan nan 0
4.7599831 7.7342167 0.49343187 73
nan nan nan 0
1.0776263 0.19195449 0.030001074 255
1.82884 -0.45665917 0.0055928994 108
nan nan nan 0
4.7884789 7.7170095 0.4870916 80
9.4845791 6.4118905 0.51186734 30
1.0832413 0.18886106 0.030329978 255
1.8271511 -0.46335837 0.0065798778 108
nan nan nan 0
3.9929633 6.3776855 0.39697799 67
9.5561056 6.4045038 0.50830066 31
1.0889231 0.1853507 0.030275056 255
1.8252739 -0.47068864 0.0072378628 108
nan nan nan 0
4.0084634 6.3505731 0.39094499 70
9.6295795 6.4027238 0.50691271 31
1.0994505 0.18299875 0.030743567 255
1.8235325 -0.4773744 0.0082248375 104
nan nan nan 0
4.0238519 6.3234854 0.38362449 71
9.6823912 6.3867855 0.50237226 31
1.1050524 0.17977121 0.030686028 112
1.8217678 -0.48405403 0.0088828206 103
nan nan nan 0
4.0471807 6.3089743 0.37708357 73
9.7226744 6.362339 0.49715385 31
1.1057091 0.17572063 0.030490624 245
1.8151523 -0.48942581 0.0091873761 103
nan nan nan 0
4.0731306 6.2985115 0.37209836 73
7.1691866 4.6539454 0.36272159 57
1.1063404 0.171666 0.030686028 245
1.8084304 -0.49506986 0.010471921 103
nan nan nan 0
4.096931 6.2894773 0.36448589 73
7.1638484 4.616785 0.35422438 57
1.1019778 0.1672487 0.029965438 245
1.8067806 -0.5010646 0.010144677 103
nan nan nan 0
4.1255765 6.2829795 0.35972354 73
7.1513095 4.5716949 0.35128954 56
1.1025782 0.16320786 0.030159973 245
1.8049248 -0.50768143 0.011453652 103
nan nan nan 0
4.1542625 6.2764058 0.35363343 73
7.1378489 4.528069 0.34541631 56
1.1031742 0.15916637 0.029965438 245
1.8078581 -0.51566428 0.011812311 102
nan nan nan 0
4.1823335 6.2640367 0.34860989 73
7.134922 4.4861469 0.34145361 56
1.1087487 0.15542981 0.030295219 235
1.8105677 -0.52430558 0.013159676 99
nan nan nan 0
4.2032514 6.2503834 0.3420369 73
7.1202426 4.4440393 0.33564216 56
1.1142101 0.15242968 0.030430466 114
1.8088145 -0.53030539 0.013817647 98
nan nan nan 0
4.2284408 6.2336559 0.33677834 73
7.1041331 4.3944559 0.33112797 56
1.1197624 0.14861262 0.030762862 106
1.8114562 -0.53898597 0.014843873 98
nan nan nan 0
4.2542429 6.2224793 0.33042386 74
7.0905285 4.3501902 0.32538608 56
1.1302191 0.145787 0.030836206 103
1.8093683 -0.54593593 0.015503585 97
0.4305914 -0.37338474 -0.0086547546 33
4.2828522 6.2153077 0.32427502 75
7.0809603 4.3086777 0.31987354 56
1.1456294 0.14350796 0.031040432 98
1.812131 -0.55402404 0.016206058 97
0.41416392 -0.3618077 -0.0079671498 36
4.3114634 6.208005 0.3181085 75
7.0669036 4.2647109 0.31420213 56
1.1659999 0.14172098 0.031372923 52
1.8148588 -0.56213975 0.016912017 96
0.39776564 -0.35018435 -0.0073074615 38
4.3371468 6.1963887 0.31435856 75
7.0568099 4.2234135 0.31162557 57
1.1764282 0.13861489 0.032053422 78
1.817548 -0.57028186 0.017953936 96
0.38152248 -0.33837444 -0.006586689 38
4.3657446 6.1888371 0.30816463 76
7.0423045 4.1797523 0.30601242 58
1.1769339 0.13430275 0.031846676 98
1.8202045 -0.57845205 0.018667744 94
0.37655476 -0.33644238 -0.006169585 38
4.3914475 6.177083 0.30175409 77
7.0276155 4.1362782 0.29901263 58
1.1625197 0.12834337 0.031239424 117
1.8180659 -0.58511752 0.019334428 93
0.37532297 -0.33782369 -0.00572892 38
4.4178152 6.1707387 0.29817829 78
7.0110922 4.0953097 0.29773012 59
1.1529883 0.12342244 0.031377189 119
1.8208598 -0.59268743 0.020387677 93
0.37420416 -0.33906966 -0.0052882507 38
4.4434762 6.1587663 0.29174733 78
7.00457 4.0571413 0.29257566 59
1.1484667 0.11868248 0.031040432 122
1.8280603 -0.60280383 0.021166053 93
0.37290213 -0.34050643 -0.0049357126 38
4.472044 6.1507244 0.28549501 78
nan nan nan 0
1.1588411 0.11546345 0.03130918 120
1.8305738 -0.61108071 0.021894684 93
0.37165406 -0.34187314 -0.0045831716 38
4.4997988 6.1369505 0.27904183 77
6.9750218 3.9688075 0.28024295 61
1.1692518 0.11176234 0.031372923 120
1.8233627 -0.61681956 0.022509871 92
0.37028098 -0.34336439 -0.0042306283 38
4.5283432 6.1286483 0.27275857 77
6.9635353 3.9285553 0.27500969 61
1.1796135 0.10839126 0.03143318 120
1.8163521 -0.6218763 0.023121562 90
0.36902201 -0.34472117 -0.0038780833 38
4.5517092 6.1177206 0.26894486 78
6.9416833 3.8859379 0.27224618 61
1.1948916 0.10580045 0.032249797 117
1.8142642 -0.62789065 0.024461873 90
0.37152201 -0.34937081 -0.0033824232 38
4.5823951 6.1076159 0.26130161 79
4.0992432 2.2731829 0.15795209 255
1.2052733 0.10184518 0.032307435 114
1.811721 -0.63516569 0.025132023 88
0.37368494 -0.35436592 -0.0030560533 38
4.6108856 6.098896 0.25630596 78
4.1163769 2.2629974 0.15582933 36
1.2205845 0.098634727 0.032707945 105
1.8093724 -0.64179873 0.025802171 86
0.3868466 -0.36954948 -0.0028012402 38
4.6402998 6.0956769 0.25012323 78
4.1414547 2.2589321 0.15484574 36
1.2358605 0.095745228 0.032892108 103
1.8025193 -0.64610523 0.026403375 85
0.41445178 -0.39855731 -0.0026092581 38
4.6687989 6.0866961 0.24509417 80
4.1541729 2.2461529 0.15253709 9
1.2461724 0.091950543 0.033157364 73
1.8001302 -0.6527043 0.02707177 85
0.45608395 -0.44182172 -0.002438219 49
4.6994133 6.0759454 0.24005105 81
4.1940179 2.245986 0.15283664 8
1.261484 0.087990314 0.033775959 73
1.7974775 -0.65991849 0.028408553 84
0.48650339 -0.47509041 -0.0018989156 49
4.7227335 6.0644345 0.23349963 82
4.2235794 2.2438264 0.15113521 8
1.2617689 0.083806589 0.033775959 73
1.7998406 -0.66792476 0.029152857 83
0.50631982 -0.49773285 -0.0014870194 49
4.7502499 6.0495157 0.22693929 82
4.2458906 2.233871 0.14909694 7
6.1558313 0.38405624 0.16474123 16
1.8018154 -0.67689896 0.02990065 86
0.50778216 -0.50337011 -0.00087353704 96
4.7765818 6.0416946 0.2218574 82
4.2710657 2.229064 0.14719562 7
6.1521106 0.36334765 0.16353212 18
1.7995509 -0.68286651 0.030572521 91
0.50964969 -0.50858337 -0.00037699108 96
4.8050404 6.0321145 0.21541542 82
4.3058872 2.2271948 0.1464196 6
6.123457 0.33913821 0.16273634 19
1.7876908 -0.6858722 0.031082077 91
0.51130855 -0.51399273 0.00012653637 96
4.8365726 6.0262442 0.2117884 83
4.3496237 2.2296481 0.1467741 6
6.1046352 0.31565699 0.1643396 19
1.7711613 -0.68698823 0.032164883 91
0.50942087 -0.51586294 0.0008857543 96
4.8660769 6.015542 0.2053104 83
4.3712015 2.2205157 0.14465721 6
6.0808177 0.29208264 0.1626052 19
1.7732753 -0.69529599 0.0329144 91
0.50752616 -0.51772606 0.0013918991 96
4.8913388 6.0016499 0.20003785 82
4.3883066 2.2090077 0.14237975 6
6.0918341 0.27023634 0.16287221 24
1.7799937 -0.70546818 0.034089714 90
0.50562441 -0.51958191 0.0018980432 96
4.9218478 5.9898233 0.1935308 82
4.4240441 2.2047832 0.14066066 6
6.107852 0.24638444 0.16327271 25
1.7864163 -0.71632451 0.034939568 84
0.5104785 -0.52880061 0.0025656286 49
4.9481196 5.9812493 0.18971585 82
4.4850993 2.2166741 0.14236738 6
6.1085787 0.2261266 0.16540648 25
1.7932756 -0.72598714 0.036471728 82
0.51554793 -0.53779626 0.0032506653 40
4.9753957 5.965302 0.18305936 82
4.5119853 2.2074702 0.14030623 6
6.0994744 0.20127468 0.16407086 25
nan nan nan 0
4.082943 -4.2935109 0.031023081 40
5.0037594 5.9547997 0.17650744 84
4.5425997 2.2018499 0.1383611 6
6.1001711 0.17891763 0.16407086 25
1.5474209 -0.6403299 0.033032577 46
4.074028 -4.3157015 0.03521879 40
5.0300131 5.945899 0.17129724 84
4.5634341 2.1932905 0.13700472 6
6.0857415 0.15829787 0.16366772 25
1.5545038 -0.64930683 0.033817846 46
4.0562563 -4.3255215 0.039328959 38
5.0648379 5.9427533 0.1649231 84
4.5850453 2.1830266 0.13475153 7
6.0813084 0.13481842 0.16353336 25
nan nan nan 0
4.0267234 -4.3256941 0.044353634 38
5.0964098 5.9355927 0.16114357 84
4.5884943 2.1640744 0.13461889 12
6.0717092 0.1123424 0.16538441 25
nan nan nan 0
3.9768755 -4.3036661 0.050114769 38
5.1247444 5.9245186 0.15588078 84
4.605516 2.1515031 0.13222258 29
6.0670824 0.090013579 0.16524829 24
nan nan nan 0
3.9035954 -4.2555509 0.053419404 39
5.1518583 5.9077668 0.14913985 84
4.6232514 2.1372213 0.12981574 30
6.062386 0.066662095 0.16511218 24
nan nan nan 0
3.8628938 -4.2452645 0.058104508 39
5.1768765 5.8927145 0.1410211 84
4.6402249 2.1244607 0.12650771 30
6.0576482 0.044405676 0.16286148 24
nan nan nan 0
3.8297904 -4.2414885 0.060843639 39
5.2030611 5.8830595 0.13708864 84
4.6608996 2.1152587 0.12687942 30
6.052711 0.023240857 0.16483994 25
nan nan nan 0
3.8023143 -4.2392368 0.065600231 40
5.2402525 5.8835974 0.13202448 84
4.6774325 2.1031027 0.12444199 30
6.0477858 0.0010555377 0.16364828 25
nan nan nan 0
3.7734129 -4.2381635 0.070321873 40
5.2718582 5.8755817 0.12676479 87
4.6942816 2.0900288 0.12289088 30
6.0477276 -0.01899956 0.16470382 25
nan nan nan 0
3.7228713 -4.2094207 0.073563524 40
5.3034873 5.8674264 0.1201037 87
4.7110968 2.076859 0.12133279 30
6.0526156 -0.041199483 0.16483994 25
nan nan nan 0
3.6776886 -4.1891732 0.077839151 39
5.3317442 5.8554025 0.11472695 84
4.7278972 2.0636024 0.11886735 29
6.0624199 -0.063487828 0.16511218 25
nan nan nan 0
3.642566 -4.1799679 0.081291035 36
5.3566146 5.8395772 0.10788419 84
4.7400556 2.0482593 0.11718007 29
nan nan nan 0
nan nan nan 0
3.6108201 -4.1743293 0.085741088 36
5.3848181 5.8273029 0.10248113 84
4.7567787 2.0348279 0.114698 29
nan nan nan 0
nan nan nan 0
3.5987132 -4.1912827 0.089675449 37
5.4130001 5.8148971 0.097064063 84
4.7734475 2.0212939 0.11311018 28
15.035958 -0.32283479 0.40958163 35
nan nan nan 0
3.5760565 -4.1973972 0.094325207 42
5.444592 5.8060193 0.090301394 84
4.7946906 2.0095966 0.11162268 28
14.98471 -0.37668613 0.40822044 35
nan nan nan 0
3.5412366 -4.1875215 0.097640768 45
5.4771895 5.7960167 0.084904298 84
4.811295 1.9958556 0.11001913 28
14.958246 -0.43088567 0.40753984 35
nan nan nan 0
3.4904542 -4.1582866 0.10139948 45
5.5053306 5.7831874 0.079436474 84
4.8232546 1.9801279 0.10739473 28
14.946576 -0.48538306 0.40726763 35
nan nan nan 0
3.4527323 -4.1440978 0.10545305 45
5.5369177 5.7738438 0.072604701 84
4.839777 1.9662137 0.10577717 27
14.929641 -0.53961754 0.40946668 35
nan nan nan 0
3.4215434 -4.1374049 0.10871262 45
5.5615501 5.7571421 0.067061745 84
4.8562608 1.9522045 0.10415262 27
14.91258 -0.59373724 0.40905571 35
nan nan nan 0
3.3967798 -4.1382513 0.11308108 45
2.8324418 2.9085982 0.030469671 27
4.8734002 1.9364063 0.10160583 27
14.895097 -0.6529386 0.40864474 35
nan nan nan 0
3.3769205 -4.1478987 0.11764316 51
2.8420858 2.899204 0.027635328 27
4.8937831 1.9257394 0.10006067 27
14.882864 -0.70185804 0.40837076 35
nan nan nan 0
3.4070981 -4.2134266 0.12296534 51
2.8607426 2.8948977 0.024862058 25
4.9108248 1.9097153 0.098411649 27
14.869872 -0.76108122 0.41069543 35
nan nan nan 0
3.5683496 -4.4492517 0.13440846 59
2.874366 2.888447 0.022758974 22
4.935792 1.9006057 0.098785132 26
14.862132 -0.81010747 0.41575316 35
nan nan nan 0
3.2545073 -4.085618 0.12856978 35
2.8991055 2.8920302 0.01929716 20
4.9521313 1.8860849 0.095272385 26
14.854217 -0.8642925 0.4104197 35
nan nan nan 0
3.527766 -4.462121 0.14299025 60
2.9168003 2.8884306 0.016478483 20
4.9687252 1.8705907 0.093598902 26
1.9604954 -0.1212829 0.054523192 28
nan nan nan 0
3.4927959 -4.4513268 0.147174 60
2.9345074 2.8847392 0.012927631 13
4.9896331 1.8576107 0.092004813 26
1.950063 -0.12781388 0.054245722 28
nan nan nan 0
3.4579513 -4.4403348 0.1513053 60
2.9568079 2.8834136 0.010812302 8
5.0111413 1.8427479 0.091332108 26
1.9445293 -0.13529266 0.054787397 29
nan nan nan 0
3.430835 -4.4421854 0.15677999 58
2.9781392 2.8829951 0.0072343857 6
5.0320158 1.829515 0.087850697 26
1.9390452 -0.14205433 0.054307584 30
nan nan nan 0
3.1286578 -4.0817695 0.14724728 20
3.0026054 2.8864453 0.0043615769 5
5.0427732 1.8145158 0.086997345 30
nan nan nan 0
nan nan nan 0
3.0931413 -4.0647421 0.14981154 20
3.0167832 2.8788741 0.0021834068 5
11.596672 4.1248283 0.19765352 34
14.696745 -1.1798904 0.41956419 32
nan nan nan 0
3.0811386 -4.0799127 0.15531217 20
3.0309446 2.8712363 -0.00072867487 6
11.602345 4.0790033 0.19320001 34
14.712243 -1.2354215 0.42013308 32
nan nan nan 0
3.0750732 -4.1030655 0.16024227 20
3.0450885 2.8635318 -0.004377285 6
11.626756 4.0397654 0.18691233 34
14.707689 -1.2893428 0.41755626 32
nan nan nan 0
3.1017003 -4.1703568 0.16605727 40
3.0665264 2.8625853 -0.0065894872 6
11.613144 3.9873936 0.1843138 34
1.9212085 -0.17551987 0.055235617 34
nan nan nan 0
3.1515763 -4.2700114 0.17512773 61
nan nan nan 0
4.0479412 1.3733031 0.06192648 72
1.9155862 -0.18208821 0.054756682 34
nan nan nan 0
3.1683121 -4.3257804 0.18068506 61
nan nan nan 0
4.0292659 1.3505199 0.060080957 72
1.9049584 -0.1881256 0.05447223 35
nan nan nan 0
3.1611748 -4.3493872 0.18494402 61
nan nan nan 0
3.9914937 1.3216062 0.057977125 72
1.9042467 -0.19510539 0.054806322 35
nan nan nan 0
3.1421938 -4.3567591 0.18945986 62
nan nan nan 0
3.9585218 1.2938443 0.057425618 72
1.9034899 -0.20208041 0.055808596 35
0.87644893 -0.51051509 0.03790148 87
3.120271 -4.3599558 0.194722 62
2.5910425 2.3305297 -0.018855572 34
3.9394853 1.2716597 0.054190923 40
1.8977877 -0.20851198 0.054996446 35
0.85733336 -0.50359809 0.037328191 87
3.0926185 -4.3549557 0.19772512 62
2.5697193 2.294368 -0.021044176 34
3.9155567 1.2481078 0.052363697 39
1.8920351 -0.21490116 0.055184826 35
0.86836135 -0.51436603 0.038419388 86
3.0650237 -4.3497815 0.20162894 62
2.5605779 2.2670019 -0.023279021 29
3.9157832 1.2308859 0.050867192 39
1.8961114 -0.22307739 0.055662885 35
0.87056071 -0.52040088 0.039140645 86
2.7927678 -3.9973886 0.18903469 74
2.5568054 2.2485814 -0.025553998 28
3.919852 1.2178966 0.050150786 39
1.9152077 -0.2317656 0.056245741 34
nan nan nan 0
2.7594669 -3.9777551 0.1919037 60
2.5574825 2.2326066 -0.027849032 28
3.9386451 1.207924 0.048895992 39
1.9143356 -0.23878241 0.056582443 34
nan nan nan 0
2.7334433 -3.971242 0.19531876 60
2.5618582 2.2199337 -0.029582953 28
3.9478476 1.1949334 0.047515538 39
1.9134377 -0.24579592 0.05691915 34
nan nan nan 0
2.6990504 -3.952213 0.1980785 60
2.5699613 2.2105155 -0.03194952 28
3.9617896 1.1833198 0.046909075 39
1.9075694 -0.25215247 0.056771692 36
nan nan nan 0
2.6620319 -3.9288497 0.20056595 60
2.578403 2.200608 -0.035499346 28
3.9661303 1.1688001 0.044022478 39
1.8967376 -0.25779748 0.056142684 38
nan nan nan 0
2.6252403 -3.905297 0.20216219 60
2.5902567 2.1943667 -0.036736719 28
1.0514621 0.30547795 0.011657706 85
1.8858511 -0.26336107 0.056846529 78
nan nan nan 0
2.6024752 -3.902247 0.2064303 63
2.6020885 2.1880589 -0.03916432 28
1.0525765 0.30162263 0.011466604 85
1.874969 -0.26885113 0.056878716 98
nan nan nan 0
2.5632493 -3.8741162 0.20850565 63
2.6177399 2.1848917 -0.042255085 28
1.048871 0.29640517 0.010653321 92
1.8690364 -0.27499539 0.056398921 99
nan nan nan 0
2.5325074 -3.8583083 0.21038251 63
2.6222363 2.1716161 -0.044570073 28
1.0499539 0.29255989 0.010272856 92
1.8778896 -0.28333363 0.057028793 99
nan nan nan 0
2.7499051 -4.2231774 0.23413382 60
2.6340151 2.1651447 -0.047015931 28
1.055842 0.29003447 0.010128873 92
1.8965849 -0.29326788 0.057964046 97
nan nan nan 0
2.731586 -4.2288594 0.23829517 60
2.6496477 2.1617701 -0.050138019 28
1.0569046 0.28616443 0.0093644504 92
1.9152521 -0.30334613 0.058229398 96
nan nan nan 0
2.7078946 -4.2260866 0.2410901 60
2.6575396 2.1520331 -0.051331691 31
1.0579448 0.28228831 0.0095555568 92
1.9289069 -0.31276026 0.059361737 91
nan nan nan 0
2.686892 -4.2273383 0.24585582 61
nan nan nan 0
1.0638139 0.27968177 0.008831271 92
1.9228276 -0.31901166 0.058869731 91
nan nan nan 0
2.6686249 -4.2327871 0.24910405 61
7.3991656 5.9003353 -0.15692845 186
1.0648816 0.27559537 0.0086392909 92
1.9167079 -0.32521924 0.059058096 96
nan nan nan 0
2.6291471 -4.2042484 0.25119394 61
3.3908324 2.6836884 -0.075481653 23
1.06589 0.27169195 0.007871368 96
1.910589 -0.33138981 0.058567837 96
nan nan nan 0
2.6030993 -4.1967335 0.25362986 61
3.4242022 2.6897459 -0.078285143 23
1.0620278 0.26656592 0.0080266977 96
1.8994892 -0.3366406 0.059276018 96
nan nan nan 0
2.5770938 -4.1890063 0.25775456 60
3.4817669 2.7134109 -0.083215863 20
1.0581478 0.26147315 0.0074193371 96
1.8933249 -0.34271017 0.059122454 96
nan nan nan 0
2.5564277 -4.1897445 0.26065776 60
3.5430357 2.7403452 -0.088349819 15
1.0591038 0.25759426 0.0066583897 96
1.8871518 -0.34874094 0.058633942 96
nan nan nan 0
2.5332048 -4.1861153 0.26327825 60
3.6005909 2.7638292 -0.092701957 15
1.060042 0.25371099 0.0064681522 96
1.8858508 -0.35565343 0.05896889 96
nan nan nan 0
2.1426153 -3.5701437 0.22841555 46
3.6464193 2.7778268 -0.097621098 15
1.0610114 0.24963959 0.0058974391 96
1.8894522 -0.36350915 0.058786634 96
nan nan nan 0
2.1217735 -3.5649643 0.23049021 44
3.6929092 2.7908993 -0.10100292 15
1.0667925 0.24687685 0.0055422694 96
1.8930013 -0.37139207 0.059276018 96
nan nan nan 0
2.0959034 -3.5510478 0.23270187 44
3.7430463 2.8072948 -0.10536011 15
1.0725664 0.24407485 0.005375593 96
1.8916172 -0.37832573 0.059612706 96
nan nan nan 0
2.0726845 -3.5412965 0.23515585 44
3.8013535 2.8293154 -0.11084621 16
1.0734563 0.24014263 0.0047996403 97
1.8804342 -0.38326228 0.05896889 97
nan nan nan 0
2.0520914 -3.5357752 0.23715171 44
3.8362534 2.8324661 -0.11487693 16
1.0743309 0.23620698 0.0044156713 97
1.8741032 -0.38913158 0.059483469 97
nan nan nan 0
2.0315454 -3.5301137 0.23983744 44
7.0237422 5.1462517 -0.21736343 47
1.0751915 0.23226821 0.0038397165 97
1.867785 -0.39496613 0.05899496 98
nan nan nan 0
2.0117037 -3.5240333 0.24178863 44
7.0545282 5.1291776 -0.22534929 47
1.0662948 0.22606447 0.0032340905 97
1.8614492 -0.40075952 0.058508195 98
nan nan nan 0
1.991315 -3.5182045 0.24371877 44
7.0861707 5.1107073 -0.23336117 47
1.0622225 0.22113602 0.0026511522 97
1.859978 -0.4075816 0.058175866 99
nan nan nan 0
1.9709752 -3.5122361 0.24633084 44
nan nan nan 0
1.058129 0.21624056 0.0016964593 97
1.8536133 -0.41331273 0.057360254 101
nan nan nan 0
1.9507471 -3.5062406 0.24751602 44
nan nan nan 0
1.0589155 0.21236108 0.00075398211 98
1.852115 -0.42011037 0.056365862 101
nan nan nan 0
1.9329995 -3.504513 0.24899592 43
nan nan nan 0
1.0589525 0.21217625 -0.00094247761 97
1.8423868 -0.41824186 0.052771896 102
nan nan nan 0
1.9355348 -3.5091097 0.24510987 49
nan nan nan 0
1.0532681 0.21505566 -0.0015009826 97
1.8537079 -0.41367346 0.051393677 101
nan nan nan 0
1.9509746 -3.5066493 0.23981237 44
7.08145 5.1073027 -0.26218235 47
1.0573671 0.21993266 -0.0020734498 97
1.860137 -0.40795669 0.049867086 100
nan nan nan 0
1.9712839 -3.5127864 0.23578611 44
7.0668001 5.1362152 -0.25928295 47
1.0663369 0.22587894 -0.0020926485 97
1.8616533 -0.40114346 0.048537586 98
nan nan nan 0
1.9916624 -3.5188181 0.23172289 44
nan nan nan 0
1.0703487 0.23102653 -0.0022933611 97
1.8680257 -0.39535764 0.047665227 98
nan nan nan 0
2.0120904 -3.5247104 0.22833113 44
3.8156714 2.8172696 -0.1366273 16
1.0743784 0.23602083 -0.0023038329 97
1.8743804 -0.38953039 0.046787616 97
nan nan nan 0
2.0326059 -3.5305309 0.22419672 44
3.7933285 2.8223138 -0.13454498 16
1.0735056 0.23995695 -0.0024958188 97
1.8807169 -0.38366178 0.045904767 97
nan nan nan 0
2.05317 -3.5362113 0.22073905 44
3.7590027 2.8182373 -0.13205168 15
1.0726185 0.24388982 -0.0026878044 96
1.8919365 -0.37873307 0.045133587 96
nan nan nan 0
2.0763433 -3.5461276 0.21679686 44
3.7083158 2.8025429 -0.12902436 15
1.0619746 0.24556664 -0.0026633698 96
1.8982475 -0.37276542 0.043899987 96
nan nan nan 0
2.0970571 -3.5515864 0.21326812 44
3.6582909 2.785862 -0.12603191 15
1.0561996 0.24831289 -0.0028405199 96
1.8996233 -0.3658098 0.04288708 96
nan nan nan 0
2.117856 -3.5569699 0.20898522 46
3.6075039 2.7701361 -0.12148664 14
1.0503325 0.25138712 -0.0024504398 96
1.8912591 -0.35633156 0.042329546 96
nan nan nan 0
2.145071 -3.5699975 0.20661122 48
3.5548351 2.7484801 -0.11844963 14
1.0494927 0.25486866 -0.0026389349 96
1.8924518 -0.35006195 0.041321859 96
nan nan nan 0
2.5423734 -4.1996112 0.23838298 60
3.4851825 2.7160726 -0.11338858 18
1.0485523 0.25871372 -0.0022619448 96
1.8937292 -0.34312475 0.040985957 96
nan nan nan 0
2.5630813 -4.1990013 0.23371647 61
nan nan nan 0
1.0524006 0.26395425 -0.0024617845 96
1.8949951 -0.33618528 0.039978255 96
nan nan nan 0
2.5811992 -4.1940389 0.22879677 61
2.6969407 2.1337392 -0.085247107 36
1.0514261 0.26780972 -0.0024617845 96
1.9060855 -0.33095136 0.039172985 96
nan nan nan 0
2.5861444 -4.1677747 0.22273226 61
2.673502 2.1311743 -0.082961321 36
1.0552787 0.27291363 -0.0022828891 96
1.9122206 -0.32480124 0.03893568 96
nan nan nan 0
2.5193996 -4.0271883 0.21072659 78
2.6451073 2.1267207 -0.080577776 34
1.0493388 0.27587619 -0.0022724168 92
1.9134736 -0.31745976 0.037920095 96
nan nan nan 0
2.5090177 -3.9750144 0.202768 61
2.6303124 2.129225 -0.077977903 32
1.0435874 0.27806726 -0.0018849544 92
1.9145765 -0.3107796 0.037581567 96
nan nan nan 0
2.4900956 -3.9162047 0.19694237 50
2.618638 2.135709 -0.076683179 31
1.0425609 0.28189024 -0.0020734498 92
1.9157219 -0.30376327 0.036565971 96
nan nan nan 0
2.4829929 -3.8736048 0.18962525 52
2.6108134 2.1453094 -0.07550364 28
1.0415208 0.28570953 -0.0020734498 92
1.8970799 -0.29368347 0.035183866 97
nan nan nan 0
2.4782994 -3.8352695 0.18340228 52
2.6102867 2.16172 -0.073952459 28
1.0404667 0.28952497 -0.0020734498 96
1.873446 -0.28299761 0.033733685 99
nan nan nan 0
2.5006244 -3.8388786 0.17920662 52
2.6100616 2.1777103 -0.071797505 28
1.0441594 0.2948769 -0.0018936811 96
1.8645846 -0.27467287 0.033226728 99
nan nan nan 0
2.5230064 -3.8423715 0.17497939 50
2.6135802 2.1969438 -0.069730654 28
1.0430721 0.29870212 -0.0015149452 96
1.8754815 -0.26925868 0.033072308 99
nan nan nan 0
2.5537026 -3.8582237 0.17208298 50
2.6055288 2.2065237 -0.068538837 28
1.0467721 0.30391732 -0.0015219266 96
1.8863748 -0.26376987 0.032249525 78
nan nan nan 0
2.5956564 -3.8905513 0.16904372 40
2.5818632 2.2035613 -0.065767743 28
1.0456517 0.30775201 -0.0011414451 96
1.8972362 -0.25820252 0.032418814 38
nan nan nan 0
2.635076 -3.9184511 0.16654843 40
2.5730226 2.2139299 -0.063990451 28
1.0444078 0.31194705 -0.0011414451 96
1.9081867 -0.25189519 0.031580314 36
nan nan nan 0
2.6705329 -3.9369552 0.16197017 40
2.5656998 2.2224789 -0.061620697 28
1.0577261 0.31974927 -0.0009642943 83
1.909017 -0.24556673 0.031244384 34
nan nan nan 0
2.6949282 -3.9446983 0.15848173 41
2.5575686 2.2318954 -0.059250917 28
3.9393437 1.206634 -0.0021572267 39
1.9148703 -0.23918852 0.030988732 34
nan nan nan 0
2.7236161 -3.955487 0.15511972 47
2.5381224 2.2313652 -0.057809465 29
nan nan nan 0
1.9058186 -0.2309669 0.030158048 34
nan nan nan 0
2.7552826 -3.9702437 0.15102756 60
2.5333076 2.244436 -0.055532139 34
3.9158688 1.2316637 -0.00071645767 39
1.8967271 -0.22281422 0.029667659 35
0.87537485 -0.52286398 0.027056409 86
3.0477386 -4.3574758 0.1615368 63
2.5437417 2.270376 -0.053561952 34
3.9160926 1.2475257 0.00071733032 39
1.8925687 -0.21529637 0.029257549 35
0.8600955 -0.50946987 0.026002474 87
3.0695281 -4.3545594 0.15719123 62
2.5465767 2.2897308 -0.052004445 34
3.9305279 1.2680109 0.00072082097 40
1.8983295 -0.20890684 0.028334379 35
0.86628622 -0.50885695 0.025255745 87
3.0913656 -4.3515821 0.15096481 62
2.5447931 2.306668 -0.050357923 27
3.958672 1.2946582 0.00072692963 72
1.8991625 -0.20128582 0.027667737 35
nan nan nan 0
3.120543 -4.3555155 0.14591941 62
2.5556207 2.3319669 -0.048309144 26
3.9923334 1.320338 0.0022017327 72
1.8998244 -0.19498736 0.027334413 35
nan nan nan 0
3.1438162 -4.3574057 0.14163889 62
2.6055546 2.3959301 -0.04695496 22
4.0301385 1.3492477 0.003708824 72
1.9055015 -0.18851505 0.02740597 35
nan nan nan 0
3.1657159 -4.3540368 0.13720468 61
3.077256 2.8505681 -0.05271453 6
4.1672297 1.4121507 0.0053756125 245
1.9111613 -0.18200417 0.027142454 34
nan nan nan 0
nan nan nan 0
3.0741179 2.8686681 -0.050638631 6
nan nan nan 0
1.9217868 -0.17591092 0.026273374 34
nan nan nan 0
3.1086257 -4.2102799 0.12333535 36
3.0526798 2.8696666 -0.04753302 6
11.609894 4.0316358 0.019305078 34
14.707001 -1.2918689 0.20099811 32
nan nan nan 0
3.0942607 -4.1588383 0.11763382 21
3.0276382 2.8671017 -0.045122862 6
11.599756 4.075819 0.019312933 34
2.0326414 -0.17104293 0.026702775 16
nan nan nan 0
3.085566 -4.1155691 0.11133981 20
3.0135136 2.8747489 -0.0421612 6
5.0409369 1.7920233 0.010271256 31
14.736114 -1.1856395 0.19352967 29
nan nan nan 0
3.0795939 -4.0763879 0.10612409 20
3.0024736 2.8863187 -0.039253619 6
5.0343313 1.8104858 0.012138754 30
1.9391319 -0.14886762 0.025119822 32
nan nan nan 0
3.0915411 -4.0611677 0.10156622 20
nan nan nan 0
5.0229588 1.8272147 0.013993161 26
1.9396644 -0.14175935 0.025119822 30
nan nan nan 0
3.1125431 -4.0578113 0.09730234 21
2.9490654 2.8768675 -0.032358073 6
5.0115304 1.8438842 0.015844075 26
1.9451629 -0.13499561 0.02484409 29
nan nan nan 0
3.1366174 -4.0583081 0.093111686 21
2.9313805 2.8806596 -0.030127604 13
4.9906807 1.8570091 0.015799569 26
1.950642 -0.12819374 0.024225421 28
nan nan nan 0
3.1576717 -4.0547476 0.087911434 34
2.9172602 2.8878775 -0.027941631 20
4.969799 1.8700047 0.016681829 26
nan nan nan 0
nan nan nan 0
3.1879978 -4.0628829 0.08293099 34
2.8995883 2.8915024 -0.025014773 20
4.9488864 1.8828714 0.018482998 26
14.858668 -0.86715358 0.17665458 35
nan nan nan 0
3.2215147 -4.0747566 0.078879736 33
2.8778958 2.891994 -0.022074817 22
4.9326124 1.8974046 0.020292893 26
14.861747 -0.81268805 0.17665458 35
nan nan nan 0
3.2489295 -4.0786161 0.074632965 33
2.8567429 2.8918593 -0.019865258 25
4.9113116 1.9108914 0.020235298 27
14.869812 -0.7558741 0.17151669 35
nan nan nan 0
3.2865236 -4.0934596 0.069636591 34
2.8461356 2.9023216 -0.016317913 27
4.8949585 1.9252152 0.022951005 27
14.882501 -0.70184088 0.1690315 35
nan nan nan 0
3.3204076 -4.1047544 0.065427229 34
2.8319983 2.9091585 -0.013463444 27
4.8739228 1.9375989 0.024716388 27
14.894963 -0.6477235 0.16914494 35
nan nan nan 0
3.3512578 -4.1119776 0.061107859 34
5.5627337 5.7563562 -0.019559884 84
4.8575006 1.951718 0.0264966 28
14.912224 -0.59372312 0.16931511 35
nan nan nan 0
3.3695118 -4.1035709 0.056531888 36
5.5346832 5.7694979 -0.0139539 84
4.8410411 1.9657428 0.028269833 28
14.92929 -0.53960484 0.16948529 35
nan nan nan 0
3.3973017 -4.1066322 0.053023972 36
5.5066075 5.7825079 -0.0097555146 84
4.8291736 1.981573 0.029153828 28
14.941248 -0.48521003 0.16177142 35
nan nan nan 0
3.4315758 -4.1172438 0.046774227 37
5.4774995 5.7963448 -0.0027838 84
4.8126316 1.9954256 0.030916579 28
14.952923 -0.43073231 0.16187961 35
nan nan nan 0
3.4691696 -4.1314659 0.043313369 39
5.4439292 5.8073435 0.0013892821 84
4.7953558 2.0108595 0.031764794 28
14.374796 -0.35633323 0.15058425 37
nan nan nan 0
3.5212941 -4.1595201 0.037096683 42
5.4144149 5.8143816 0.0097066453 84
4.774826 2.0208948 0.035292901 28
14.350852 -0.30812496 0.15533301 37
nan nan nan 0
3.5934579 -4.2163315 0.034808617 42
5.3842416 5.8287196 0.01384918 84
4.7574759 2.0361087 0.036128018 29
nan nan nan 0
1.3304641 -0.62493473 0.014880423 50
3.6397023 -4.2360282 0.029242856 42
5.3581142 5.8391657 0.019364407 84
4.7415061 2.047904 0.037861086 29
6.0740595 -0.085875712 0.063616082 30
1.3507733 -0.62872827 0.014562796 45
3.6275766 -4.1937008 0.02419455 36
3.2794418 3.600271 0.014449559 28
4.7290196 2.0640922 0.038725 29
6.0643568 -0.063508116 0.061394401 26
1.3848634 -0.63843077 0.013574119 37
nan nan nan 0
3.2595055 3.6048357 0.019509237 28
4.7122464 2.0773659 0.04224522 30
6.0595269 -0.04124653 0.063459009 26
1.3917444 -0.63542825 0.013351599 35
4.0837712 -4.6517329 0.017285718 55
3.2429218 3.6130266 0.022878565 28
4.6954589 2.090553 0.043060258 30
6.0546594 -0.019021336 0.06129317 25
1.4077395 -0.63650632 0.012403921 35
4.1140528 -4.6517262 0.010838489 55
3.2329721 3.6286082 0.026295001 28
4.6831908 2.1056919 0.044810757 30
6.0547004 0.0010567445 0.060236424 25
1.437222 -0.64410502 0.012095012 35
4.1568732 -4.667212 0.0065449835 55
3.2235866 3.6436017 0.029718406 28
4.6625085 2.1150074 0.046467006 30
6.0546446 0.023248281 0.06129317 25
1.4487189 -0.64289153 0.011341925 35
3.8233414 -4.2611833 0.00099920097 48
3.2035935 3.6478577 0.033894017 28
4.6410656 2.1258256 0.049003728 30
6.0595107 0.046534617 0.061343785 25
1.4556465 -0.63959026 0.010822702 35
3.8456388 -4.2545595 -0.0030028387 48
3.193475 3.6633296 0.036473542 28
4.6150837 2.1344233 0.049699206 30
6.0643201 0.068800479 0.059277419 24
nan nan nan 0
3.8679349 -4.2478251 -0.0090242205 48
3.186548 3.6825459 0.040798336 26
4.5981522 2.1470854 0.051372889 29
6.069026 0.0911019 0.059326287 25
nan nan nan 0
3.92065 -4.2741432 -0.014172059 48
3.1762629 3.6979649 0.0450943 26
4.5992723 2.1681764 0.05413647 12
6.0786495 0.11353212 0.059424024 25
nan nan nan 0
4.2891893 -4.6416435 -0.019854831 54
3.1626666 3.7095571 0.048497535 26
4.5867538 2.182858 0.056742966 7
6.0831914 0.1359224 0.059472892 25
1.5478023 -0.65318072 0.0079167839 46
4.3197865 -4.6405163 -0.025450323 54
3.1522505 3.7249069 0.052805651 26
4.5741978 2.1974809 0.058458507 6
6.0876498 0.1583475 0.059521761 25
1.5364594 -0.64145494 0.0072649093 46
4.3812113 -4.6720481 -0.031300608 47
5.0036654 5.9567995 0.090974957 84
4.5345941 2.1989472 0.060694102 6
6.0920267 0.18080711 0.059570629 25
nan nan nan 0
4.4128385 -4.6697097 -0.035883781 42
4.9753542 5.9673681 0.096282117 82
4.5130038 2.2089446 0.063144349 6
6.1013169 0.20346758 0.05966837 25
1.8002939 -0.73615289 0.0067893164 67
4.464375 -4.6896944 -0.041813433 40
4.9502058 5.9816446 0.10299584 82
4.4869275 2.2166033 0.064639963 6
1.2790606 0.047348108 0.012733712 96
1.7705375 -0.7164222 0.0060004317 67
0.50871217 -0.53048015 -0.0052595041 40
4.9218669 5.9919791 0.10692333 82
4.4425812 2.2159576 0.064989835 6
1.2688915 0.051629424 0.012190937 96
1.7963638 -0.71922171 0.0047280919 80
0.50717515 -0.52501184 -0.0059881569 40
4.8934932 6.0021539 0.11354356 83
4.3942084 2.2119787 0.066976689 6
1.2537092 0.055615075 0.01204695 96
1.7896926 -0.70895082 0.0036957322 84
0.50560606 -0.51956308 -0.0064532692 49
4.8672023 6.016933 0.12022391 83
4.3682098 2.218996 0.069269806 6
1.248503 0.059969898 0.011998954 97
1.7736591 -0.6950894 0.0029923657 91
0.50750279 -0.51770222 -0.0070859236 49
4.8356733 6.0229697 0.12538332 83
4.3466897 2.2281439 0.069910266 6
1.2482768 0.064545587 0.011780798 97
1.7668725 -0.68496996 0.0016536992 91
0.50939143 -0.51583314 -0.0078451019 49
4.8072786 6.032764 0.13060634 83
4.3206983 2.2348557 0.072171077 7
1.2530241 0.069396801 0.011827921 97
1.7880456 -0.68565041 0.0010026916 91
0.50783771 -0.51032549 -0.0082936203 96
4.7788606 6.0424089 0.13715991 82
4.2858629 2.2367866 0.073413581 7
1.2527614 0.0739889 0.011827921 97
1.8046916 -0.68409669 0.00033684852 91
0.50969934 -0.50845546 -0.0089218942 96
4.750433 6.0519223 0.14369595 82
nan nan nan 0
1.2574557 0.079112411 0.012094946 97
1.797823 -0.67396724 -0.00067020638 91
0.50800252 -0.50306147 -0.0093590608 96
4.7250681 6.0652485 0.15031214 82
nan nan nan 0
1.2521685 0.083388455 0.01204695 98
1.7862161 -0.66215938 -0.0013299407 96
0.50627279 -0.49768662 -0.0097892405 96
4.6966085 6.0745101 0.15681741 82
nan nan nan 0
1.2468649 0.087626666 0.01221711 98
1.7792413 -0.65216643 -0.0019844391 98
0.49377492 -0.48185477 -0.010115566 96
4.6681414 6.0836406 0.16330509 81
nan nan nan 0
1.2465354 0.092196062 0.01221711 100
1.7816191 -0.64564055 -0.0026459182 98
0.46321517 -0.44872996 -0.0099060992 49
4.6396852 6.0926628 0.16843861 80
4.1298623 2.2526093 0.083755665 36
1.2312328 0.095602892 0.012286043 105
1.7839723 -0.63910586 -0.003307397 97
0.42160961 -0.40544063 -0.0093929572 38
4.6112237 6.1015563 0.17355809 79
4.1347051 2.2749534 0.084846348 36
1.2159283 0.098899312 0.011710979 114
1.7815871 -0.63089305 -0.0046181362 97
0.39060545 -0.37274933 -0.009235831 38
4.5827389 6.1102953 0.17999659 79
6.9325337 3.8475125 0.1467005 63
1.205592 0.10250789 0.011826162 115
1.783886 -0.62435842 -0.0052778684 96
0.37744707 -0.35755843 -0.0092567364 38
4.5542479 6.1189027 0.18641751 79
6.9444904 3.8875091 0.15142262 61
1.1952478 0.10604224 0.011728426 115
1.7862682 -0.61750358 -0.0059376 96
0.37146538 -0.34931755 -0.0095237084 38
4.5287228 6.1314006 0.19294737 77
6.9649501 3.9325593 0.15637153 61
1.1799134 0.10904186 0.011788632 120
1.7885175 -0.61095172 -0.0065973308 96
0.36908397 -0.34453782 -0.0097828303 38
4.5002084 6.1397567 0.19933745 77
6.9808254 3.9753358 0.16126195 61
1.1645753 0.11193071 0.011639409 120
1.7954797 -0.60599047 -0.0072762598 93
0.37033921 -0.34317806 -0.010135319 38
4.4746308 6.1520238 0.20584519 77
7.0008125 4.0207696 0.16629194 59
1.1492302 0.11470842 0.011691761 120
1.8071728 -0.60256791 -0.0079796221 93
0.37164888 -0.34174865 -0.010487802 38
4.4490209 6.1641827 0.21234405 78
7.0075803 4.0588851 0.17104699 59
1.143829 0.118405 0.011641148 120
1.8046173 -0.59437519 -0.0086218966 94
0.37289202 -0.34037787 -0.010928398 38
4.4204683 6.1721683 0.21869005 78
7.0141616 4.0971026 0.17582819 59
1.1433853 0.12259633 0.011841849 119
1.8020262 -0.58620924 -0.0092606796 94
0.37413132 -0.33900368 -0.011280869 38
4.3919144 6.1800232 0.22501846 78
7.0248604 4.137959 0.18074632 58
1.1578338 0.12843971 0.012199627 117
1.799399 -0.57807028 -0.009895971 94
0.37536541 -0.33762479 -0.011633336 38
4.3633585 6.187747 0.23132923 76
7.039619 4.1814818 0.18723831 57
1.1722569 0.13439088 0.012356704 105
1.8016019 -0.57115567 -0.010555697 96
0.37659416 -0.33624125 -0.011985796 38
4.3405323 6.2035303 0.23793648 75
7.0541787 4.225184 0.19234391 57
1.1816844 0.13986155 0.012669104 52
1.8036796 -0.56454754 -0.01121542 96
0.38161746 -0.33810183 -0.01246041 38
4.3119464 6.2110147 0.24422076 75
7.0642314 4.2664633 0.1973666 57
1.171236 0.14297976 0.012768579 52
1.8057348 -0.55793238 -0.011545281 97
0.39786106 -0.34989876 -0.013318949 38
4.285531 6.2168722 0.25048736 75
7.0798459 4.3079996 0.20254274 57
1.1508847 0.14457433 0.012754609 94
1.8027891 -0.55047989 -0.012172714 97
0.42536196 -0.37159017 -0.01459282 36
4.2547765 6.2255912 0.25673634 74
7.0922208 4.3546362 0.20775551 57
1.1354204 0.14726387 0.012589678 98
1.7954047 -0.54035544 -0.012762621 98
0.44572714 -0.38623714 -0.015753213 33
4.2289982 6.2368207 0.2631422 74
7.1058369 4.3989406 0.21446346 56
1.1200036 0.14944038 0.012621959 106
1.7973686 -0.53377008 -0.013417103 98
nan nan nan 0
4.2059803 6.2520857 0.26971799 73
7.1192517 4.4434209 0.21975547 56
1.1144929 0.15286469 0.012762446 114
1.8041089 -0.52858388 -0.013780996 99
nan nan nan 0
4.1801047 6.2630653 0.27742457 73
7.132432 4.4880557 0.22508404 56
1.1089722 0.15625064 0.012901188 114
1.8061205 -0.52165139 -0.014437221 102
nan nan nan 0
4.1542273 6.273973 0.28380707 75
7.1411576 4.5301681 0.23031311 56
1.1083899 0.16031386 0.013096652 235
1.8032069 -0.51365697 -0.015053303 103
nan nan nan 0
4.1283517 6.2848139 0.28886825 74
7.1539121 4.5751176 0.23423013 57
1.1077971 0.16437557 0.012901188 114
1.800256 -0.5056901 -0.015992258 103
nan nan nan 0
4.0996661 6.291275 0.29634809 73
7.1663256 4.620152 0.2426361 57
1.1071802 0.16843368 0.013487578 114
1.8020973 -0.49908844 -0.015992258 103
nan nan nan 0
4.0737257 6.3018432 0.30269945 73
7.1659985 4.6572113 0.24767993 57
1.1065532 0.17249022 0.013683041 111
1.8087323 -0.49379539 -0.016689491 103
nan nan nan 0
4.04776 6.3123016 0.3090418 72
9.3142576 6.1020474 0.33048192 25
1.1108507 0.17733294 0.013744125 111
1.8105271 -0.48716196 -0.017016727 103
nan nan nan 0
4.02174 6.3226037 0.31668308 71
9.3083658 6.1470647 0.336916 23
1.1101909 0.18140282 0.013940461 111
1.8172116 -0.48148546 -0.017718319 103
nan nan nan 0
3.9930594 6.3286161 0.32279113 70
9.3354969 6.2142391 0.34655675 23
1.1045849 0.18464594 0.014073964 112
1.8237957 -0.47608307 -0.018423403 104
nan nan nan 0
3.9882357 6.3726072 0.33086008 70
9.437006 6.3318458 0.3571403 30
1.0940421 0.18700804 0.014142021 255
1.8303676 -0.47063959 -0.018802121 104
nan nan nan 0
3.9620645 6.3826909 0.3371962 67
9.4798126 6.4110794 0.36564538 30
1.0785694 0.18843448 0.014333108 255
1.8320737 -0.46392614 -0.019461822 105
nan nan nan 0
nan nan nan 0
nan nan nan 0
1.0729474 0.19150746 0.014457883 255
1.8289071 -0.45599777 -0.019739311 105
nan nan nan 0
4.7347536 7.7537274 0.42526191 73
7.6363654 5.246366 0.30734846 21
1.0673171 0.19454172 0.014580914 255
1.8257821 -0.44777936 -0.02034316 105
nan nan nan 0
4.7061086 7.7707086 0.43318996 71
7.6210151 5.277041 0.31398579 21
1.0715096 0.19936642 0.014838331 255
1.8274075 -0.4410837 -0.020671263 103
nan nan nan 0
4.6722569 7.779016 0.44063264 71
7.6147079 5.3120937 0.31935501 21
1.0658573 0.20235933 0.014959614 255
1.8290046 -0.43438122 -0.021327466 99
nan nan nan 0
4.635848 7.7828827 0.44781071 71
7.6522303 5.3800731 0.32829189 35
1.0700144 0.20721458 0.015218777 255
1.8111067 -0.4231241 -0.021425188 99
nan nan nan 0
4.6070099 7.7993445 0.45887795 71
9.1651917 6.4941216 0.40403345 30
1.0692397 0.21113342 0.015789442 255
1.7980269 -0.41312447 -0.021252403 98
nan nan nan 0
3.3642368 5.7433853 0.34301066 255
