# .PCD v0.7 - Point Cloud Data file format
VERSION 0.7
FIELDS x y z intensity
SIZE 4 4 4 4
TYPE F F F F
COUNT 1 1 1 1
WIDTH 1542
HEIGHT 1
VIEWPOINT 0 0 0 1 0 0 0
POINTS 1542
DATA ascii
nan nan nan 0
4.2431965 1.3395032 0.21917893 36
1.8925954 -0.22165912 0.13057436 34
0.85583895 -0.51200622 0.073412262 86
2.7287178 -3.9129801 0.30180389 94
3.1470277 2.7725263 0.085657418 4
4.2285829 1.3194861 0.21742186 41
1.9067073 -0.22972403 0.13159981 34
nan nan nan 0
2.6900408 -3.884912 0.30226162 76
3.1685021 2.7708848 0.083025165 3
4.1141429 1.2672477 0.20979115 37
1.9157302 -0.23793773 0.13262038 34
nan nan nan 0
2.7264905 -3.9685514 0.31220874 83
3.1899943 2.7691119 0.081109188 3
4.0423779 1.2289391 0.20442231 37
1.9198129 -0.24525259 0.13330087 34
nan nan nan 0
2.8888431 -4.2380629 0.33617207 59
3.2153132 2.7704909 0.078530096 2
4.0088305 1.2019442 0.2017588 37
1.9189013 -0.25228745 0.13330087 35
nan nan nan 0
2.8675351 -4.2401123 0.3399851 59
3.248282 2.7782192 0.076101057 2
3.9893308 1.180179 0.19910279 37
1.9129972 -0.25864735 0.13329422 36
nan nan nan 0
2.851809 -4.2503457 0.3444519 59
nan nan nan 0
3.9888685 1.16416 0.19813855 38
1.9021324 -0.26428106 0.13294055 37
nan nan nan 0
2.8416059 -4.2688737 0.34870353 59
nan nan nan 0
3.9932406 1.1495702 0.19523756 38
1.9011738 -0.27125421 0.13260537 96
nan nan nan 0
2.8203082 -4.270731 0.35159823 59
nan nan nan 0
3.9974599 1.1349357 0.19451231 38
1.9050795 -0.27893981 0.13328585 97
nan nan nan 0
2.7962666 -4.2682633 0.35502321 59
nan nan nan 0
4.0064678 1.1216415 0.19329382 38
1.9188424 -0.28814259 0.13432175 97
nan nan nan 0
2.7688525 -4.2620296 0.35718334 59
7.7755389 6.4051018 0.14594369 17
4.015399 1.1082875 0.19279885 36
1.9276102 -0.29668757 0.13535275 91
nan nan nan 0
2.7422359 -4.2551169 0.360199 59
7.796299 6.3721123 0.13708439 17
4.029202 1.0962203 0.19034608 36
1.9314604 -0.30453116 0.13535765 91
nan nan nan 0
2.718461 -4.2523737 0.36177704 57
7.7885776 6.3183274 0.13303906 17
4.042809 1.0840238 0.191532 35
1.9351852 -0.31239185 0.13672934 87
nan nan nan 0
2.6946411 -4.2493525 0.36597401 54
7.7689338 6.2553182 0.12360542 18
4.0565419 1.0717846 0.18905996 35
1.9291849 -0.31833678 0.13604017 87
nan nan nan 0
2.6682916 -4.2420988 0.36802194 53
7.7410846 6.186265 0.11761148 18
1.2616476 0.32839945 0.058516096 34
1.9279817 -0.32540151 0.13638143 87
nan nan nan 0
2.6419971 -4.2346544 0.370913 53
7.7648435 6.1565456 0.11069346 19
1.2822065 0.32873765 0.059181869 33
1.9267527 -0.33246166 0.13672268 83
nan nan nan 0
2.6157923 -4.2270732 0.37376893 54
7.752039 6.1002531 0.10502581 20
1.2834229 0.32404098 0.058719814 33
1.9205856 -0.33865106 0.13671426 78
nan nan nan 0
2.5897129 -4.2194123 0.37572575 54
7.7901764 6.0841637 0.096612915 20
1.2700887 0.315727 0.057369813 33
1.9193552 -0.34569234 0.13637389 78
nan nan nan 0
2.5663171 -4.2158751 0.37803635 55
nan nan nan 0
1.2567098 0.30751491 0.056035493 33
1.9180986 -0.35272908 0.13603352 91
nan nan nan 0
2.2544162 -3.7342405 0.3371684 130
3.4878254 2.6821103 0.036860924 14
1.2384119 0.29823095 0.054947756 33
1.9167695 -0.35975254 0.13637389 96
nan nan nan 0
2.1560903 -3.6011376 0.32738262 44
3.5413773 2.7026937 0.033434086 12
1.2249509 0.29024342 0.053422473 34
1.9105626 -0.36584184 0.13568561 96
nan nan nan 0
2.1249456 -3.5788164 0.32756668 43
3.6190302 2.7410247 0.031694923 12
1.2114202 0.28235209 0.052569393 35
1.9091855 -0.37283739 0.13602512 96
nan nan nan 0
2.0939662 -3.5562682 0.32842219 43
3.6610432 2.7517877 0.028776798 12
1.1881568 0.27212423 0.051301043 38
1.9224581 -0.3827495 0.13741358 96
nan nan nan 0
2.0707204 -3.5464544 0.33041954 43
3.6916354 2.7526627 0.026522748 11
1.1647869 0.26228246 0.050041404 81
1.930795 -0.39177197 0.13845673 96
nan nan nan 0
2.0500717 -3.5408309 0.33278722 43
3.7218127 2.7539966 0.022626359 11
1.1462551 0.25369889 0.048589192 86
1.9392087 -0.40053201 0.1388122 96
nan nan nan 0
2.0295498 -3.5352039 0.33370554 43
3.7520463 2.7551441 0.018686317 11
1.1325649 0.24631795 0.047159757 88
1.9231083 -0.40456143 0.13742024 96
nan nan nan 0
2.009068 -3.529424 0.33531705 43
nan nan nan 0
1.118827 0.23903885 0.045950901 88
1.902127 -0.40743348 0.13568561 98
nan nan nan 0
1.9886557 -3.5235412 0.33690748 43
7.5452743 5.4538436 0.022748597 19
1.1050501 0.2318636 0.044757728 90
1.8908743 -0.41227725 0.13498978 102
nan nan nan 0
1.9658805 -3.5132079 0.33805847 43
7.5530376 5.4174194 0.014600546 18
1.0912352 0.22479244 0.043580238 97
1.8845038 -0.4181295 0.13430497 105
nan nan nan 0
1.9438481 -3.5024686 0.33848235 43
7.5330505 5.3593984 0.0048406702 18
1.0871913 0.21980867 0.042416878 97
1.8927583 -0.4272458 0.13398309 106
nan nan nan 0
1.9237074 -3.4963191 0.33930889 42
7.5615664 5.3796859 -0.0097179916 18
1.0922053 0.22062398 0.040468786 98
1.8783547 -0.42433906 0.12891693 109
nan nan nan 0
1.9215038 -3.4923141 0.33401567 42
7.5133538 5.3869705 -0.0096813394 19
1.0914099 0.22462988 0.039885353 97
1.8946179 -0.42072061 0.12822528 102
nan nan nan 0
1.9441599 -3.5030303 0.33079129 43
7.4976134 5.4174018 -0.0080721462 19
1.0954834 0.2296567 0.039673503 97
1.8816319 -0.41060612 0.12555577 102
nan nan nan 0
1.9669192 -3.5136249 0.32751775 43
3.7914002 2.760684 -0.0032742373 11
1.1093013 0.23680125 0.040006872 90
1.888067 -0.40476644 0.12487002 98
nan nan nan 0
1.9897534 -3.5240488 0.32490128 43
3.7727108 2.7693043 -0.001633628 11
1.1181988 0.24298911 0.040159639 90
1.9140148 -0.40299729 0.12545919 97
nan nan nan 0
2.0108669 -3.5297177 0.32113883 43
3.7424366 2.7682467 0 11
1.1270586 0.24924383 0.040510379 90
1.9302243 -0.39902759 0.12504332 96
nan nan nan 0
2.0314069 -3.5355797 0.31805104 43
3.6961854 2.7550516 0.0016091936 12
1.1358947 0.25556833 0.040657911 86
1.9268473 -0.39097098 0.12369732 96
nan nan nan 0
2.0495164 -3.5370238 0.31454799 43
3.662075 2.7505631 0.0031974427 12
1.1446995 0.26196089 0.040801957 86
1.9135814 -0.38132942 0.12173383 96
nan nan nan 0
2.0701778 -3.5426843 0.31140211 43
3.6200731 2.7398267 0.004754276 12
1.1583323 0.26955238 0.041322831 86
1.9052328 -0.37241071 0.12009471 96
nan nan nan 0
2.0934384 -3.5525348 0.30859768 43
3.5737462 2.7264099 0.0070607262 13
1.1719177 0.27724558 0.042053889 86
1.9066056 -0.3654291 0.11975589 96
nan nan nan 0
2.119318 -3.5665019 0.30684316 43
3.4923735 2.6846375 0.0084569873 14
1.190335 0.28621364 0.042538211 58
1.9128983 -0.35937157 0.11904465 96
nan nan nan 0
2.1581714 -3.6017606 0.30613431 44
3.4627433 2.6821089 0.0099378964 14
1.2135489 0.29650459 0.043406337 34
1.919172 -0.35327283 0.11832815 96
nan nan nan 0
2.5274255 -4.1831551 0.35119051 57
3.4410617 2.6855519 0.011427529 21
1.25126 0.31058276 0.044570327 33
1.9205146 -0.34624726 0.11730637 83
nan nan nan 0
2.5559044 -4.1954718 0.34783787 57
nan nan nan 0
4.1137452 1.0371186 0.14666747 28
1.921831 -0.3392165 0.11628456 83
nan nan nan 0
2.5897281 -4.216135 0.34512854 55
7.5910697 6.0144506 0.035497297 238
4.1050501 1.0509434 0.14723429 30
1.9279999 -0.3330234 0.11624049 91
nan nan nan 0
2.6158264 -4.2238326 0.34218469 55
7.7337551 6.1804075 0.039741039 18
4.0814552 1.0623789 0.14653979 34
1.929324 -0.32562804 0.11521602 87
nan nan nan 0
2.6461983 -4.2348022 0.33780193 55
7.7677317 6.2498822 0.046982341 18
4.0633903 1.0720767 0.14675237 35
1.9304131 -0.31923166 0.11487453 87
nan nan nan 0
2.6709826 -4.2430902 0.33565161 55
7.7835994 6.3097849 0.050715558 17
4.0497794 1.0843776 0.14640337 36
1.9316293 -0.31216377 0.11385003 87
nan nan nan 0
2.6973965 -4.2504168 0.33171603 56
7.7952509 6.3667188 0.056213271 17
4.036109 1.0965866 0.14678437 36
1.93278 -0.30508497 0.11350852 87
nan nan nan 0
2.7211788 -4.2533526 0.32829604 58
7.795013 6.4142962 0.059904575 17
4.022428 1.1087166 0.14643361 37
1.9289908 -0.29724473 0.11253766 91
nan nan nan 0
2.745791 -4.2557378 0.32396573 59
nan nan nan 0
4.0087132 1.1207613 0.14608288 37
1.9251889 -0.2894392 0.11123051 96
nan nan nan 0
2.7697158 -4.2584763 0.31960374 59
nan nan nan 0
3.9997456 1.1340762 0.14663312 38
1.9114386 -0.28021169 0.11003771 97
nan nan nan 0
2.7964022 -4.2652221 0.31640887 59
nan nan nan 0
3.9907105 1.1473335 0.14790633 38
1.9075301 -0.27250081 0.10941707 91
nan nan nan 0
2.8204224 -4.2676635 0.31287375 59
nan nan nan 0
3.9913008 1.1633581 0.14735873 38
1.9085724 -0.26551539 0.10840814 37
nan nan nan 0
2.8445263 -4.2700286 0.30841675 59
nan nan nan 0
3.9917526 1.1793803 0.14898878 38
1.9144799 -0.25918806 0.10868899 36
nan nan nan 0
2.6376872 -3.9282541 0.28111219 85
nan nan nan 0
4.0013447 1.1996996 0.14952534 37
1.9155172 -0.25184253 0.10767742 35
nan nan nan 0
2.6368306 -3.8931186 0.2735886 84
3.1800659 2.7585478 0.041147228 3
4.0355711 1.2245617 0.15169227 37
1.9213121 -0.24612574 0.10761757 34
nan nan nan 0
2.6695244 -3.9133759 0.27231449 84
nan nan nan 0
4.0592771 1.2495723 0.15277065 37
1.9124314 -0.23718908 0.10605384 34
nan nan nan 0
2.696717 -3.9193497 0.26765013 84
nan nan nan 0
4.1695557 1.298672 0.1586086 37
1.8983378 -0.2290518 0.10522959 34
0.86771721 -0.52282101 0.062848344 86
2.7439265 -3.959779 0.2676571 94
3.0784268 2.7302742 0.045964032 34
4.3649058 1.377087 0.16623051 255
1.8893015 -0.22093908 0.10368413 34
0.85253799 -0.5094254 0.060743295 86
3.0501614 -4.3674283 0.29036999 63
nan nan nan 0
6.492105 2.0743921 0.24872056 55
1.8901166 -0.21401502 0.10335214 34
0.85872024 -0.50885767 0.060525909 86
3.0691662 -4.3605075 0.28598887 63
3.0763898 2.769994 0.050578378 4
6.5177369 2.1089408 0.24999699 55
1.8958873 -0.20763341 0.10295766 34
nan nan nan 0
3.0939662 -4.3616891 0.28119236 64
3.0884089 2.8013804 0.05385587 4
6.5478663 2.1452334 0.25386098 72
1.8966533 -0.20068511 0.10262478 34
nan nan nan 0
3.1187565 -4.3626642 0.27823615 64
3.0707099 2.8059099 0.056630693 4
6.558845 2.175482 0.25700945 72
1.902343 -0.19423935 0.10289343 34
nan nan nan 0
3.1465418 -4.3676062 0.27457497 64
3.0530264 2.8103535 0.058667287 3
6.5603004 2.2026877 0.25738111 72
1.9080645 -0.18775982 0.10215822 34
nan nan nan 0
3.1751943 -4.3718843 0.26993567 61
nan nan nan 0
6.5710211 2.2331192 0.26054701 72
1.9137281 -0.18123756 0.10208875 33
nan nan nan 0
3.2031052 -4.3764882 0.26714739 61
3.0213368 2.8223755 0.062784925 3
6.5769663 2.2620633 0.26110977 71
14.69873 -1.3376892 0.77867746 34
nan nan nan 0
3.2341104 -4.3850379 0.26267165 61
nan nan nan 0
6.5827446 2.2910662 0.262889 71
14.728539 -1.28599 0.77741414 34
nan nan nan 0
3.265192 -4.3933797 0.25909871 59
nan nan nan 0
6.5883546 2.3201258 0.2658926 71
14.738129 -1.2324146 0.7776767 35
nan nan nan 0
3.2993705 -4.4055486 0.25571403 55
2.9786944 2.8455076 0.069747008 4
5.1019392 1.8177221 0.20617138 171
14.742745 -1.1809938 0.76993287 35
nan nan nan 0
3.3306994 -4.4135728 0.25108412 54
2.964607 2.852905 0.07253474 4
5.1092753 1.8414671 0.20863774 171
1.9367229 -0.14800268 0.10111542 34
nan nan nan 0
3.3620758 -4.4213538 0.24834053 50
2.9648621 2.874155 0.075681962 4
5.0836468 1.8533111 0.20975877 28
1.9422324 -0.14126545 0.10137536 28
nan nan nan 0
3.3935795 -4.4289975 0.24458811 47
2.9507024 2.8814814 0.077749811 16
5.0580688 1.8650171 0.20898403 28
1.9527528 -0.13483745 0.10087036 27
nan nan nan 0
3.4252083 -4.4365005 0.23981366 50
2.9293909 2.881721 0.080335878 16
4.9855924 1.8590792 0.20812982 28
1.9582167 -0.12800506 0.10112768 27
nan nan nan 0
3.4507499 -4.4358768 0.23653144 50
2.9111633 2.8858688 0.083002187 17
4.9553022 1.8685002 0.20900132 31
14.862124 -0.91681755 0.76473635 35
nan nan nan 0
3.4763567 -4.4351559 0.23224461 50
2.8899133 2.8858807 0.085549787 21
4.9390159 1.8830642 0.21045209 31
14.865384 -0.86233902 0.76473635 35
nan nan nan 0
3.4895921 -4.4185896 0.22810802 50
2.8651876 2.8822408 0.08725889 22
4.9320464 1.9011407 0.21137464 33
14.868711 -0.8078633 0.75953853 35
nan nan nan 0
3.540906 -4.4483409 0.22438067 52
2.8475387 2.8855624 0.089874476 26
4.9110112 1.913736 0.21261513 35
14.876691 -0.75362068 0.75719351 35
nan nan nan 0
3.5823152 -4.4666648 0.22096148 52
2.8369212 2.8959572 0.09128958 26
4.9039645 1.9317229 0.21261513 39
14.864652 -0.69839901 0.75123757 35
nan nan nan 0
3.6239042 -4.4847436 0.21747234 53
nan nan nan 0
4.9107065 1.9552002 0.21506476 68
14.8721 -0.64412874 0.7514897 35
nan nan nan 0
3.6688273 -4.5064502 0.2140974 53
5.5581222 5.7576146 0.19278613 86
4.9127064 1.9768876 0.2173198 128
14.919269 -0.59139556 0.75375849 35
nan nan nan 0
3.7107646 -4.523994 0.21148527 53
5.5324221 5.7752066 0.1982491 86
4.9053569 1.9948515 0.21916828 160
14.936306 -0.53724825 0.75451475 35
nan nan nan 0
3.7465355 -4.5336146 0.20743652 53
5.5042806 5.7881498 0.20078945 86
4.8794942 2.0052071 0.21926197 191
14.948551 -0.4828355 0.74718791 35
nan nan nan 0
3.7856455 -4.5468988 0.20247455 53
5.4760442 5.8008862 0.20749974 84
4.839746 2.0096383 0.2196378 245
14.965197 -0.4284718 0.74793637 36
nan nan nan 0
3.8216443 -4.5560727 0.19934909 53
5.4443927 5.8098693 0.21266837 84
4.7816043 2.0060744 0.2191447 245
14.966666 -0.37361875 0.74793637 36
nan nan nan 0
3.8545558 -4.5612507 0.19497538 53
5.4127727 5.8187242 0.21642898 84
4.8064156 2.0372329 0.22062254 255
14.95821 -0.31855354 0.74221486 36
nan nan nan 0
3.8875549 -4.566246 0.1905579 52
5.3845243 5.8310676 0.22169781 84
4.7666645 2.0410259 0.22185971 255
14.969263 -0.26390287 0.74271035 36
nan nan nan 0
3.9279459 -4.5779595 0.18640554 51
5.3528786 5.8395948 0.22680946 84
4.8186836 2.0842323 0.22647096 255
6.0369873 -0.084297724 0.29951194 24
nan nan nan 0
3.9709291 -4.5938773 0.18340185 51
5.3246317 5.8516932 0.23066583 84
6.7473187 2.9478309 0.31761959 64
6.0423417 -0.063277565 0.2976504 24
nan nan nan 0
4.010839 -4.6058183 0.17806293 51
5.2963395 5.8636317 0.23589072 84
nan nan nan 0
6.0425329 -0.041130852 0.2976504 24
nan nan nan 0
4.054143 -4.6212363 0.17493694 51
5.2670026 5.8763576 0.24110155 84
6.7708988 3.0174305 0.32624343 62
6.0476375 -0.018999277 0.29789639 24
nan nan nan 0
4.0976119 -4.6363974 0.171755 51
5.2353215 5.8842611 0.24751675 83
nan nan nan 0
nan nan nan 0
nan nan nan 0
4.1362991 -4.6490107 0.16838191 51
5.2090454 5.8939705 0.25269419 83
6.799489 3.0872474 0.33387509 62
15.081602 0.057909481 0.74289602 35
nan nan nan 0
4.1734233 -4.6562586 0.16373681 51
5.1807289 5.9054093 0.25648645 83
nan nan nan 0
15.111511 0.11341275 0.739097 35
nan nan nan 0
4.2073045 -4.659585 0.1589127 49
5.1523676 5.9166846 0.26163745 83
6.8263769 3.1600142 0.3402704 62
8.2895737 0.092599273 0.40545309 9
nan nan nan 0
4.2387133 -4.6582847 0.15392271 47
5.1272583 5.9316087 0.26694456 83
6.8372116 3.1955111 0.34535182 59
8.2891788 0.12298146 0.40545309 9
nan nan nan 0
4.2760959 -4.6649046 0.1502378 45
5.0988221 5.9425979 0.27343756 83
6.852447 3.2332859 0.34936807 59
8.2936649 0.15345436 0.40569729 9
nan nan nan 0
4.3135819 -4.6713109 0.14651091 43
5.0671625 5.9496865 0.27837005 83
6.8674393 3.2711875 0.35473278 59
8.3329897 0.18473665 0.40765134 10
nan nan nan 0
4.2796893 -4.6006608 0.1392999 43
5.0387754 5.960475 0.28210077 82
6.8824115 3.3093224 0.35613027 59
8.3773298 0.21644187 0.40692434 12
1.54875 -0.64753854 0.066835448 27
4.1393695 -4.4172416 0.12891947 27
5.013556 5.9749227 0.28736547 81
6.8970256 3.3475282 0.36154199 57
15.240401 0.4496623 0.7403695 34
nan nan nan 0
4.0389204 -4.2785115 0.12119232 27
4.9840202 5.9862542 0.29379496 81
6.907022 3.3837149 0.36540446 56
15.258617 0.50618047 0.74133956 34
1.7615557 -0.72138935 0.074457712 58
0.5029552 -0.52889389 0.014396287 40
4.9555488 5.9966197 0.29884908 82
6.9123082 3.4177768 0.37039116 56
15.271502 0.56264955 0.74473423 34
1.8105166 -0.73370254 0.075730078 76
0.50498915 -0.52696592 0.013886747 49
4.9238644 6.0029497 0.30504876 82
6.9263725 3.4563811 0.37588364 54
15.289297 0.61942726 0.74570781 34
1.813218 -0.72707152 0.075048164 80
0.5034517 -0.52152163 0.013285574 96
4.8922644 6.0092077 0.30851719 82
6.9359598 3.4929755 0.37709615 54
15.312129 0.67657489 0.74157453 33
1.8112745 -0.71859741 0.07349585 80
0.50536925 -0.51968259 0.012526477 96
4.8637905 6.0191584 0.31352204 82
6.9496465 3.5318594 0.38263303 53
15.339478 0.73412454 0.74302435 31
1.81392 -0.71196336 0.072815649 80
0.50727654 -0.51783293 0.012020404 96
4.838398 6.0328312 0.32006839 82
6.9587536 3.5686405 0.38658851 53
1.2319118 0.063483812 0.059898879 37
1.8258684 -0.70894098 0.072163522 79
0.50917691 -0.51597607 0.011514326 49
4.8098917 6.0425315 0.32504675 82
6.9676223 3.6055033 0.39193064 53
1.2266845 0.067723274 0.059656374 37
1.8331422 -0.70404446 0.071662158 79
0.50754553 -0.51056635 0.010932322 49
4.7782445 6.0481358 0.33114251 81
6.9763107 3.642477 0.39729878 54
1.2015005 0.070750974 0.058443841 37
1.8357337 -0.69732982 0.070976689 73
0.50941873 -0.50870794 0.010429722 49
4.7497363 6.0575633 0.33608738 79
6.9804621 3.6772666 0.40106124 55
1.1613483 0.072658859 0.05670689 37
1.8383002 -0.69060546 0.070291221 73
0.50427091 -0.49971491 0.0097892405 49
4.7212214 6.0668597 0.34101808 78
6.9756947 3.7074809 0.40294766 58
1.1262113 0.074605443 0.054609269 80
1.8361804 -0.68213987 0.068744883 80
0.49897784 -0.49085799 0.0089183915 40
4.6927009 6.0760274 0.34593472 78
6.9574714 3.7305632 0.40682662 63
1.1010203 0.076990835 0.053401101 129
1.8386908 -0.67541361 0.068061136 82
0.47216201 -0.4610855 0.0079480363 40
4.6641374 6.0850158 0.35217535 78
6.943563 3.7559369 0.41096011 63
1.0957408 0.080658451 0.053351227 129
1.8364681 -0.66696817 0.067546502 82
0.43077514 -0.41759595 0.0068066376 39
4.6356058 6.0939231 0.35706195 78
6.9383268 3.786041 0.4156186 63
1.0854939 0.083714783 0.052866217 160
1.8389225 -0.66024059 0.066864483 83
0.39628068 -0.38134938 0.005855469 38
4.6070309 6.1026487 0.36326897 76
6.9417729 3.8210063 0.41943482 63
1.0752147 0.086887486 0.052569475 192
1.8366426 -0.65183258 0.066013187 84
0.37598699 -0.35917541 0.0051730704 38
4.5804172 6.1160913 0.36836627 76
6.9537196 3.8608582 0.42518514 60
1.0748892 0.090827763 0.052569475 203
1.839041 -0.64510423 0.065332897 87
0.37373737 -0.3542918 0.0047638081 38
4.5518193 6.1245618 0.37454408 76
6.9654636 3.900847 0.43096673 60
1.0695652 0.094327278 0.052513499 203
1.8414146 -0.63836688 0.064652592 88
0.37139463 -0.34949535 0.0043615247 38
4.5261807 6.1369195 0.38095358 76
6.9770045 3.9409714 0.43677956 60
1.0692122 0.098246798 0.052513499 203
1.8437631 -0.63162071 0.063972287 88
0.37267521 -0.34813377 0.0040054894 38
4.497601 6.1451921 0.38577116 76
6.9884071 3.9812689 0.4412199 59
1.0688359 0.10216412 0.052700896 203
1.8413532 -0.62326366 0.063129686 89
0.37028447 -0.34336764 0.0036136732 38
4.4689794 6.1532803 0.39190191 77
7.0038691 4.0241508 0.4473666 59
1.0634845 0.10558751 0.052455775 203
1.8389066 -0.61493266 0.06229056 89
0.37154225 -0.34200981 0.0032611249 38
4.4433565 6.1654005 0.39562383 77
7.0192413 4.067275 0.45071796 60
1.0630995 0.10948561 0.05226925 203
1.8412849 -0.60787737 0.061275296 89
0.37285468 -0.34058249 0.0028204373 38
4.4176226 6.1773005 0.4019914 78
7.029943 4.1079669 0.45664543 60
1.0577252 0.11285151 0.052025001 203
1.8482721 -0.60268056 0.060754623 89
0.37410188 -0.33921483 0.0024678856 38
4.3889685 6.1850185 0.40808126 78
7.0325599 4.1424942 0.46203902 60
1.0622593 0.11727452 0.052455775 213
1.8457316 -0.5943768 0.059921581 90
0.37534383 -0.33784249 0.0021153328 38
4.3653927 6.1952229 0.41310367 76
7.047893 4.1847329 0.46830899 60
1.0618554 0.12079541 0.052642301 213
1.8381882 -0.58522689 0.058939327 92
0.37646285 -0.33659661 0.0018509175 38
4.3345623 6.2042136 0.41916424 75
7.0658197 4.2321563 0.4749032 58
1.0663217 0.12564138 0.052888293 203
1.8357641 -0.57634932 0.058450814 92
0.38529351 -0.341719 0.0014381494 37
4.3087392 6.2156529 0.42548791 75
7.0799561 4.27596 0.48124871 58
1.0658449 0.12954767 0.05307569 192
1.8331099 -0.56814355 0.057629094 95
0.40161696 -0.35345057 0.0012138754 36
4.2828879 6.2269826 0.43180254 73
7.0938625 4.319922 0.48763067 58
1.0703088 0.13407288 0.053510815 192
1.8304199 -0.5599649 0.056810856 95
0.42173785 -0.36842418 0.00087964558 34
4.2570515 6.238265 0.43678999 73
7.1032834 4.3614287 0.49375337 58
1.0747631 0.13863371 0.05375855 181
1.8324788 -0.553258 0.056142684 95
nan nan nan 0
4.2283468 6.2452416 0.44279444 73
7.1167369 4.4056878 0.5002057 56
1.0841393 0.14388478 0.054444902 160
1.8345037 -0.54654062 0.055808596 96
nan nan nan 0
4.2046552 6.2548285 0.44776309 73
7.1315079 4.4476118 0.50669438 54
1.0885949 0.14815128 0.054885261 160
1.83153 -0.53904855 0.054996446 96
nan nan nan 0
4.1737151 6.2629566 0.45505175 73
7.1429396 4.494668 0.51321948 54
1.0929273 0.15321189 0.055327352 149
1.8288879 -0.53030276 0.05452013 96
nan nan nan 0
4.1478038 6.2737823 0.46000072 72
7.151475 4.5367131 0.51947498 55
1.0923489 0.15721527 0.055519972 139
1.8260322 -0.52222699 0.053714078 97
nan nan nan 0
4.1218228 6.2844319 0.4662542 72
7.1639991 4.5815682 0.52607036 55
1.0967054 0.16194737 0.055771191 139
1.8279519 -0.51553577 0.05305111 97
nan nan nan 0
4.0958161 6.2949705 0.47249866 72
7.1762848 4.6265726 0.53270221 56
1.0961237 0.16577312 0.055964679 139
1.8250227 -0.50749594 0.052580893 97
nan nan nan 0
4.0697856 6.3053989 0.47873399 70
7.1798868 4.6662369 0.54023719 154
1.1004338 0.17055282 0.056411128 118
1.8268882 -0.5008083 0.051919665 98
nan nan nan 0
4.0437303 6.3157167 0.48496029 70
9.7294769 6.3740697 0.73994392 31
1.0997915 0.17458341 0.056605481 118
1.823981 -0.4924894 0.051452927 98
nan nan nan 0
4.0177436 6.3260684 0.48856157 65
9.6892862 6.3986163 0.74070072 31
1.1040829 0.17941572 0.056664094 100
1.8258082 -0.48581001 0.050133936 98
nan nan nan 0
4.0128703 6.3698645 0.49872258 65
9.6372728 6.4126911 0.74857473 31
1.1083144 0.1842753 0.057505343 89
1.8227332 -0.4778451 0.050330184 98
nan nan nan 0
nan nan nan 0
9.5928774 6.4340014 0.74897742 31
1.1076415 0.18833791 0.057309248 89
1.8245057 -0.47116983 0.049014665 99
nan nan nan 0
4.7855315 7.7212806 0.61769372 78
7.9980159 5.4069242 0.63446021 59
1.1118336 0.19324625 0.058154847 89
1.8213681 -0.46324542 0.049212661 99
nan nan nan 0
4.7529531 7.7348862 0.62527722 74
7.977777 5.4359517 0.64119995 59
1.1160241 0.19819134 0.05861 84
1.8230621 -0.45656872 0.048884653 99
nan nan nan 0
4.7190371 7.7431736 0.63408631 73
7.6324615 5.241724 0.62310201 19
1.1152599 0.20227495 0.059203483 84
1.8247231 -0.44988379 0.048884653 100
nan nan nan 0
4.6879978 7.7499585 0.63813138 73
7.6108451 5.2641053 0.62438148 19
1.1195033 0.2068814 0.059265595 73
1.8262297 -0.4438363 0.04790061 100
nan nan nan 0
4.6565037 7.7681379 0.64761609 73
7.5852919 5.291573 0.62888747 21
1.1284664 0.21322592 0.05998591 68
1.8280128 -0.43650568 0.047244579 100
nan nan nan 0
4.6225548 7.7759914 0.65637636 70
7.6062007 5.3477106 0.64039385 26
1.1374519 0.2192446 0.061114062 52
1.8344582 -0.43094394 0.04769912 99
nan nan nan 0
4.5940337 7.7866855 0.66074842 70
9.2044077 6.5170836 0.78072357 26
1.1465285 0.22493994 0.061436985 39
1.8407711 -0.42599079 0.04683635 98
nan nan nan 0
3.2411911 5.5444121 0.47725868 74
9.1654367 6.5448856 0.78951621 30
1.1553757 0.23149604 0.062579073 37
1.8424662 -0.41859806 0.04683635 98
nan nan nan 0
3.2131362 5.5429506 0.48173827 71
9.1167603 6.5607123 0.79329944 30
1.1642928 0.23772465 0.063316807 35
1.843996 -0.41184404 0.046506584 98
nan nan nan 0
3.1826503 5.537034 0.48581222 71
9.0691252 6.5746059 0.79900622 30
1.1781104 0.24483281 0.06432493 35
1.8504542 -0.40583313 0.046298973 96
nan nan nan 0
3.149781 5.5266352 0.48946735 37
9.0164394 6.5869603 0.80236274 31
1.1869521 0.25121206 0.065282255 34
1.8568236 -0.40010276 0.046089623 96
nan nan nan 0
3.114578 5.5117292 0.49269068 31
8.9676867 6.6018906 0.80798703 31
1.1762509 0.25345504 0.064954959 34
1.8631833 -0.39433277 0.045546133 96
nan nan nan 0
3.0911961 5.5129542 0.49743062 31
8.9252596 6.6164064 0.81393439 31
1.1704935 0.25627908 0.065312833 34
1.8791538 -0.39120671 0.046239771 93
nan nan nan 0
2.9307952 5.2764297 0.48244423 35
8.8739796 6.6337543 0.8233453 31
1.1596766 0.25879341 0.065390706 36
1.8855988 -0.38465765 0.046696067 90
nan nan nan 0
3.0337932 5.5093346 0.50934839 71
8.8291159 6.6508002 0.83113915 31
1.1538182 0.2619293 0.065735474 36
1.8820866 -0.37676126 0.046909779 90
nan nan nan 0
3.0300801 5.550643 0.51769239 71
8.7805042 6.6647654 0.83466172 31
1.1576924 0.26727432 0.066427588 36
1.8736532 -0.36793578 0.046332199 90
nan nan nan 0
3.0307996 5.6006732 0.52803296 69
8.7038403 6.6569958 0.84122962 32
1.2004107 0.28177482 0.069585182 33
1.8749892 -0.36106598 0.046332199 96
nan nan nan 0
3.0329506 5.6046476 0.53400755 70
8.7585697 6.698854 0.85813528 30
1.1857363 0.27833027 0.070440687 33
1.8847402 -0.36294377 0.049254764 93
nan nan nan 0
3.0306993 5.5494738 0.52652162 71
8.7774477 6.6576166 0.85735941 31
1.1673638 0.26907796 0.069704093 34
1.8782564 -0.36986119 0.050797082 90
nan nan nan 0
2.9814677 5.4120765 0.51017565 37
8.8259249 6.6435685 0.85583103 31
1.1634622 0.26369157 0.069621876 36
1.8915632 -0.3796885 0.052205153 90
nan nan nan 0
2.9506252 5.309947 0.49729472 35
8.8703032 6.6261811 0.85582972 31
1.169281 0.26050833 0.070122257 35
1.8901317 -0.38661334 0.053215321 90
nan nan nan 0
3.0725739 5.4819856 0.51004159 31
8.9187984 6.6116161 0.85426629 31
1.1750919 0.25728589 0.070624389 35
1.8788887 -0.39149368 0.053944513 93
nan nan nan 0
3.1173909 5.5144596 0.50855857 31
8.9662743 6.5984383 0.85073906 31
1.1906908 0.25613156 0.071078405 34
1.8627645 -0.39526325 0.05385543 96
nan nan nan 0
3.1526124 5.5293598 0.50540501 38
9.0029554 6.5746999 0.84409934 31
1.1867498 0.25073645 0.070575394 35
1.8564086 -0.4010306 0.054045554 97
nan nan nan 0
3.1754737 5.5223179 0.50246543 71
9.0513353 6.559299 0.84441346 30
1.1729864 0.24334085 0.069913179 35
1.8500173 -0.40675268 0.05489514 97
nan nan nan 0
3.2039409 5.5293112 0.49957678 73
9.0854158 6.5381556 0.84163612 30
1.1493213 0.23445882 0.068661384 37
1.8436803 -0.41211137 0.055739477 98
nan nan nan 0
nan nan nan 0
3.5879557 2.5602088 0.32909814 31
1.1404755 0.22788949 0.067874044 39
1.8419921 -0.41950473 0.056398921 98
nan nan nan 0
4.591476 7.7854543 0.69230294 70
nan nan nan 0
1.1265967 0.22082528 0.067200504 52
1.8355443 -0.42511877 0.057236254 98
nan nan nan 0
4.6228352 7.7733741 0.68479258 70
7.5360518 5.2944608 0.67956966 26
1.1176178 0.21481471 0.06621889 68
1.8339641 -0.43184122 0.057565097 100
nan nan nan 0
4.6538959 7.7668619 0.68080682 71
7.5945621 5.2980399 0.68163282 21
1.1134079 0.21017931 0.06612622 94
1.8276317 -0.43675184 0.058396302 100
nan nan nan 0
4.6879234 7.7528906 0.67327565 73
7.5997519 5.256433 0.67371362 19
1.1093453 0.20480403 0.065638028 100
1.8258438 -0.44408005 0.059052225 100
nan nan nan 0
4.7217422 7.7445712 0.66768456 74
7.6181512 5.2299395 0.67210084 19
1.1100773 0.20073466 0.06583491 100
1.8241736 -0.45076162 0.060036097 100
nan nan nan 0
4.7556219 7.7362018 0.66049415 74
7.979763 5.4352655 0.69546551 59
1.1108167 0.19666667 0.065638028 89
1.822499 -0.45744196 0.060364053 99
nan nan nan 0
4.7840567 7.7249222 0.65609932 78
8.0019741 5.4116354 0.69413877 59
1.1114516 0.19298002 0.06583491 89
1.8208499 -0.46379039 0.06167585 99
nan nan nan 0
4.0149355 6.430233 0.54073441 213
9.5792542 6.4272885 0.82284123 31
1.1072416 0.18807112 0.06534759 89
1.8239655 -0.47170958 0.062168695 99
nan nan nan 0
3.9935563 6.3441143 0.52814507 65
9.6280146 6.4089556 0.81891978 31
1.1029993 0.18319376 0.065057158 100
1.8222138 -0.47838876 0.062497508 99
nan nan nan 0
4.0170274 6.3298221 0.52160299 65
9.6767693 6.3903508 0.81496692 31
1.0987164 0.17854364 0.064572446 103
1.8252556 -0.48634529 0.063322656 98
nan nan nan 0
4.0425997 6.313951 0.51636904 70
9.7192736 6.3625374 0.81231409 31
1.099413 0.17412992 0.064766727 103
1.8232564 -0.49365965 0.064311691 98
nan nan nan 0
4.0636611 6.3007364 0.51244348 70
7.1683598 4.6587458 0.59632087 101
1.0999732 0.17048143 0.064961001 118
1.8263847 -0.50101304 0.065804005 98
nan nan nan 0
4.0918841 6.2889276 0.50623709 71
7.1662993 4.6165943 0.59011793 56
1.0957242 0.1653215 0.064476289 139
1.8243477 -0.5083375 0.066134542 97
nan nan nan 0
4.1178837 6.2784262 0.50002152 72
7.1582108 4.5743465 0.5835982 55
1.0913956 0.1605794 0.063993327 171
1.8272583 -0.51637316 0.066971861 97
nan nan nan 0
4.1443248 6.2732792 0.49674937 72
7.1439409 4.5319338 0.57972276 55
1.091911 0.15695772 0.064185858 171
1.8303059 -0.52379477 0.068144925 96
nan nan nan 0
4.1724796 6.2611027 0.49051321 73
7.1362944 4.4887476 0.5717864 54
1.0974869 0.15326518 0.064282887 160
1.8329641 -0.5325253 0.068990067 96
nan nan nan 0
4.1961899 6.2516575 0.48558211 73
7.1216884 4.4466691 0.56648737 56
1.0930432 0.14895096 0.063993327 160
1.83597 -0.54000723 0.069504678 96
nan nan nan 0
4.2221069 6.2407169 0.47932875 73
7.1085005 4.4023056 0.55975336 57
1.0935928 0.1449452 0.063800789 160
1.8339552 -0.54672581 0.070172697 95
nan nan nan 0
4.2507157 6.2336526 0.47601318 73
7.0949965 4.3580456 0.55450898 58
1.089155 0.14029689 0.063703761 160
1.8318069 -0.5537529 0.071174704 95
0.43811959 -0.38004678 0.0039479039 33
4.2787199 6.2209229 0.471057 73
7.086947 4.3140149 0.55106741 58
1.0748388 0.13406876 0.063024119 192
1.8342981 -0.56255203 0.072700016 95
0.41400564 -0.36205181 0.0042236554 34
4.3045678 6.2096357 0.46477488 73
7.0773306 4.2726889 0.54475069 58
1.0753229 0.13012837 0.063024119 192
1.836971 -0.57074624 0.073560797 95
0.39760607 -0.35041356 0.0044400655 36
4.3321176 6.2030201 0.46010688 75
7.0574651 4.228826 0.53781283 58
1.0708021 0.1259798 0.062545508 203
1.8398224 -0.57832909 0.074088469 92
0.38521948 -0.34177345 0.0046739276 37
4.3629603 6.1940665 0.4541024 76
7.0403028 4.1802258 0.53091663 60
1.0713099 0.12168155 0.062357325 213
1.8422214 -0.58721942 0.074955352 90
0.37638864 -0.33664849 0.0049357126 38
4.388751 6.182425 0.44778535 78
7.0300174 4.1393437 0.52470392 60
1.0667869 0.11720902 0.062068634 213
1.8400319 -0.59395939 0.075630277 90
0.37143525 -0.33467662 0.0052358918 38
4.4122667 6.1720877 0.44410768 78
7.0222425 4.1034675 0.52167982 60
1.0671589 0.11366963 0.062255945 213
1.8380141 -0.60004556 0.076642655 90
0.37402377 -0.33926299 0.0056407871 38
4.4401517 6.1586871 0.43777439 78
7.017303 4.062881 0.51583391 59
1.0675875 0.10957122 0.062255945 203
1.8355651 -0.60741049 0.077317566 90
0.37259561 -0.34082326 0.0060814526 38
4.4665942 6.1522541 0.43304247 77
7.0006061 4.0222759 0.51079369 59
1.0629885 0.10553826 0.061779942 203
1.833515 -0.61348552 0.077992462 90
0.37146097 -0.34205478 0.0063458499 38
4.4944258 6.1386056 0.42668772 77
6.9909067 3.9794612 0.50468755 59
1.0634143 0.10127133 0.061593503 203
1.835743 -0.62243623 0.078870632 89
0.37008157 -0.34354007 0.006698377 38
4.522954 6.1303043 0.42325881 76
6.9751005 3.9366853 0.50109816 60
1.0687277 0.097826093 0.062255945 203
1.8381352 -0.63076842 0.080091447 88
0.36881459 -0.34488919 0.0072271614 38
4.5493445 6.1234641 0.41981936 76
6.962069 3.8989458 0.49783221 60
1.0690355 0.094280571 0.062443253 203
1.8359803 -0.63684195 0.081448145 88
0.37130439 -0.34953269 0.0077437279 38
4.5750108 6.1110945 0.41210017 76
6.9461479 3.8566542 0.4887197 61
1.0693955 0.090363555 0.062068634 203
1.8383474 -0.64522129 0.081657521 87
0.36995757 -0.35095391 0.0079217311 38
4.6035213 6.1024284 0.40863681 78
6.9333382 3.8179405 0.4868778 61
1.0796485 0.08724577 0.063024119 192
1.8406235 -0.65360719 0.083230525 83
0.37589124 -0.35920945 0.0086215315 38
4.6290927 6.0897713 0.40222847 79
6.929986 3.7830594 0.48151591 61
1.0899256 0.084056571 0.063414201 160
1.8381883 -0.66033918 0.083912328 83
0.39617741 -0.38138327 0.0095028449 38
4.6576238 6.0809135 0.39740619 79
6.9396362 3.7553782 0.47708011 61
1.1001829 0.080792382 0.063993327 129
1.8357418 -0.66706699 0.084253229 83
0.43424922 -0.42111078 0.010875433 39
4.686192 6.0719795 0.39123112 78
6.9579711 3.7323949 0.47324771 58
1.120401 0.078149565 0.064955547 129
1.8332566 -0.67378068 0.084935002 81
0.46845895 -0.45762902 0.012117129 40
4.7198958 6.0651565 0.38663 78
6.973043 3.7045112 0.4704915 55
1.1555719 0.07594274 0.066976391 40
1.8351769 -0.68286079 0.086177506 80
0.49510574 -0.48755926 0.013463499 40
4.7484221 6.0558872 0.38176006 79
6.9733977 3.6719906 0.46822381 54
1.1907052 0.073869675 0.069205448 37
1.8419694 -0.69308466 0.087647669 73
0.50386655 -0.50001192 0.014373549 49
4.7769423 6.0464873 0.37687594 81
6.964901 3.634973 0.46262762 53
1.2208667 0.071249925 0.070942827 37
1.839388 -0.69982022 0.088334642 73
0.50555867 -0.50538218 0.01497383 49
4.8054547 6.0369573 0.37197775 81
6.9384894 3.5888925 0.45589221 53
15.40106 0.84217942 0.89474827 25
1.8321199 -0.70475286 0.088795654 78
0.50721782 -0.51077121 0.015581082 49
4.8329077 6.028141 0.36706537 82
6.9282875 3.5545437 0.45171756 53
15.368874 0.78931093 0.89272135 30
1.8204322 -0.70719588 0.089025497 79
0.50902396 -0.51600116 0.016195307 49
4.8604064 6.0128231 0.36055571 82
6.9204578 3.515506 0.44620553 53
15.352 0.72935283 0.88888061 30
1.8128865 -0.7126534 0.089817762 80
0.50694048 -0.51803219 0.016701322 96
4.8867435 6.0045662 0.35696802 82
6.9008722 3.4768157 0.44419688 54
15.32909 0.67732435 0.89279336 30
1.8057021 -0.7171163 0.09060476 80
0.50520736 -0.51969761 0.017460329 96
4.918376 5.9983935 0.35224357 82
6.8914442 3.440454 0.43872917 54
15.306533 0.62012553 0.89134115 33
1.8076671 -0.72557831 0.091517605 80
0.50319958 -0.52162474 0.017966324 96
4.9468846 5.9882631 0.3459191 82
6.8996711 3.4130268 0.43575788 56
15.268797 0.56254989 0.88901764 34
1.8003377 -0.73030937 0.09196113 80
0.50473261 -0.52706635 0.018599704 96
4.9753437 5.9779549 0.34093437 81
6.8944073 3.3790276 0.43060741 56
15.245968 0.50576085 0.88490313 34
nan nan nan 0
4.4631081 -4.6949224 0.16962662 31
5.0059118 5.9658132 0.33457625 81
6.8855929 3.3404944 0.42653611 57
15.217938 0.44368288 0.88316578 35
1.6055695 -0.66537696 0.083785281 30
4.4544301 -4.7236218 0.17455204 42
5.0322647 5.9569898 0.32956153 81
6.8743377 3.3069179 0.42115077 59
15.209347 0.3929581 0.88258666 35
nan nan nan 0
4.3908195 -4.6872101 0.17715463 45
5.0627637 5.9445214 0.32453266 83
6.8651514 3.2686279 0.41711852 59
15.190839 0.33146527 0.88142836 35
nan nan nan 0
4.3378396 -4.6680713 0.18133706 45
5.089098 5.9354553 0.31948966 83
6.8489952 3.2331188 0.41283154 59
15.176883 0.28081179 0.88055968 35
nan nan nan 0
4.3019085 -4.6603017 0.18491152 45
5.1195626 5.9227057 0.31443259 83
6.8348432 3.1929507 0.4098821 62
15.162607 0.21966442 0.88498431 35
nan nan nan 0
4.2729306 -4.6663547 0.18999591 45
5.1479406 5.9116006 0.3093614 83
6.8285694 3.1595817 0.40485746 62
15.138354 0.16381915 0.88352782 35
nan nan nan 0
4.2145381 -4.6382174 0.19366409 47
5.1773338 5.8994622 0.30427611 83
6.8175368 3.124191 0.40089646 62
15.108904 0.10811889 0.88177997 35
nan nan nan 0
4.1840291 -4.6386881 0.19740753 49
5.2035894 5.8898683 0.3005484 83
6.8051305 3.0912414 0.39956191 62
6.034564 0.023171177 0.35429415 23
nan nan nan 0
4.1585026 -4.6412411 0.20237201 49
5.2298374 5.8801641 0.29681018 84
6.792707 3.0584655 0.39562705 62
6.0395999 0.001054109 0.3545872 24
nan nan nan 0
4.134727 -4.6488776 0.20639098 50
5.2615619 5.8723483 0.28911883 84
6.7813811 3.0235212 0.38782194 62
6.0446849 -0.018990001 0.35277024 24
nan nan nan 0
4.096056 -4.6362667 0.20846981 51
5.2898793 5.8605909 0.28397369 84
6.7697015 2.9886174 0.38393483 64
6.0445747 -0.041144751 0.35277024 24
nan nan nan 0
4.0525799 -4.6210818 0.2114137 51
5.3235512 5.8505058 0.28037125 84
6.76334 2.9534247 0.38289854 67
6.0342669 -0.064246297 0.35429415 24
nan nan nan 0
4.0076127 -4.6069827 0.21643312 51
5.3498044 5.8403325 0.27519616 84
6.759532 2.9251106 0.37826496 67
nan nan nan 0
nan nan nan 0
3.9652772 -4.5905771 0.21925116 51
5.3824873 5.8309035 0.27017716 84
6.7473779 2.8905361 0.3744204 66
14.35305 -0.25303927 0.84280396 207
nan nan nan 0
3.9125493 -4.5632372 0.22146101 52
5.4107556 5.8185921 0.26497042 84
6.7396574 2.8580387 0.37084624 66
14.451832 -0.3077696 0.84866488 30
nan nan nan 0
3.869765 -4.546958 0.22519884 52
5.4424505 5.8098292 0.25852334 84
6.7317886 2.8256366 0.36728594 67
14.470567 -0.36123443 0.84983712 30
nan nan nan 0
3.8175046 -4.5190063 0.22725584 53
5.4706903 5.7972417 0.2532832 84
6.7237716 2.79333 0.36373958 67
14.484114 -0.4146978 0.85071623 32
nan nan nan 0
3.7911563 -4.521328 0.2318292 53
5.5023518 5.7881451 0.24818428 84
6.7156062 2.7611196 0.36020708 67
14.487485 -0.4679431 0.85100925 32
nan nan nan 0
3.7456908 -4.5005074 0.23415035 53
5.5271049 5.7716722 0.24276066 84
6.7073522 2.7290292 0.35542467 67
14.480683 -0.52085984 0.85071623 34
nan nan nan 0
3.7099752 -4.4909697 0.23701844 53
5.5518084 5.7550936 0.23732994 84
6.6988935 2.6970129 0.35192347 69
14.55334 -0.57689029 0.85765398 35
nan nan nan 0
3.6838553 -4.4927864 0.24147888 53
2.8317699 2.9140072 0.1177566 26
6.690289 2.6650946 0.34843615 69
14.825396 -0.64210594 0.87381953 35
nan nan nan 0
3.6514897 -4.4867535 0.24447934 47
2.8360007 2.8960285 0.11463714 26
6.6815386 2.6332753 0.34496275 65
14.872801 -0.69878191 0.87675869 35
nan nan nan 0
3.616051 -4.4766226 0.24823457 52
2.8501482 2.8892152 0.11265352 26
6.6725335 2.601512 0.3440032 65
14.864849 -0.75302076 0.88166028 35
nan nan nan 0
3.5799553 -4.4669166 0.25193733 52
2.8642964 2.88235 0.10995542 22
6.6541762 2.5662985 0.34007433 65
14.856852 -0.80721891 0.88396144 35
nan nan nan 0
3.5229983 -4.4290156 0.25401816 52
2.8855166 2.8824966 0.10680195 21
6.6357589 2.531296 0.33368728 72
14.8541 -0.86168444 0.87876773 35
nan nan nan 0
3.4880886 -4.4182711 0.25562042 52
2.9102981 2.886018 0.10517944 20
6.6262999 2.4999058 0.33274862 76
1.9628224 -0.12073909 0.11683355 27
nan nan nan 0
3.4624629 -4.4190183 0.26081905 50
2.9290383 2.8813741 0.10256759 16
nan nan nan 0
1.9623015 -0.12861603 0.11717677 27
nan nan nan 0
3.4506841 -4.440588 0.26619083 50
2.9493401 2.8821628 0.10078273 10
nan nan nan 0
1.9568849 -0.1347796 0.11687937 27
nan nan nan 0
3.4266713 -4.4399967 0.2693972 50
2.9650385 2.873322 0.097301826 4
5.223217 1.9031606 0.25535581 255
1.9463519 -0.14190657 0.11662517 29
nan nan nan 0
3.3965347 -4.4376655 0.27331445 50
2.963783 2.8531086 0.094794407 4
6.4700232 2.3331792 0.31352457 47
nan nan nan 0
nan nan nan 0
3.3454192 -4.4010434 0.27424294 50
2.9778812 2.8457251 0.09203402 4
6.5586176 2.3379986 0.31496474 71
14.731648 -1.1775172 0.88318956 35
nan nan nan 0
3.3111062 -4.3892026 0.27659497 50
2.9929545 2.8372309 0.089266621 4
6.5774765 2.3150048 0.31298265 71
14.746543 -1.2383018 0.88696551 34
nan nan nan 0
3.275367 -4.378273 0.27985933 54
3.0060306 2.8307595 0.086492196 3
6.5805025 2.2915733 0.31032616 71
14.737383 -1.2867621 0.88666636 34
nan nan nan 0
3.2458234 -4.3689117 0.28238121 59
nan nan nan 0
6.574739 2.2625806 0.30844522 72
1.9136232 -0.17415336 0.11550628 33
nan nan nan 0
3.2148266 -4.3604846 0.2858136 61
3.0492656 2.8285975 0.081313193 3
6.5641718 2.23207 0.30513874 72
1.9080032 -0.18069538 0.11520626 33
nan nan nan 0
3.1986742 -4.3720345 0.29054114 61
nan nan nan 0
6.5582037 2.2032573 0.30206424 72
1.9023412 -0.18719663 0.11523987 33
nan nan nan 0
3.1707759 -4.3674035 0.29323792 64
3.088439 2.8230989 0.076689832 4
6.5521116 2.1745181 0.2990002 72
1.9016424 -0.19416781 0.11523987 34
nan nan nan 0
3.1421621 -4.3631325 0.29684514 64
nan nan nan 0
6.5411491 2.1442969 0.29573193 72
1.8959346 -0.20060909 0.11527173 34
nan nan nan 0
3.1173205 -4.3622646 0.29976147 64
nan nan nan 0
nan nan nan 0
1.8952028 -0.20722373 0.11560448 34
0.85161394 -0.50063837 0.064921506 87
3.0924962 -4.3612299 0.30358988 64
3.0639811 2.738553 0.066708796 21
4.1206255 1.3174369 0.18358675 52
1.8894714 -0.21360795 0.11530185 35
0.84545231 -0.50119483 0.065108247 87
nan nan nan 0
nan nan nan 0
4.2302918 1.3354295 0.18670215 37
1.8886558 -0.22052944 0.11563373 35
0.85651606 -0.51180249 0.06662219 86
2.7315776 -3.9127131 0.2784875 94
nan nan nan 0
4.2018037 1.3095206 0.18446223 37
1.9026794 -0.22923875 0.11687871 34
nan nan nan 0
2.7341321 -3.9471159 0.28442562 94
nan nan nan 0
4.0491247 1.2456734 0.17459522 37
1.9167252 -0.23806131 0.11711763 34
nan nan nan 0
2.6771293 -3.895247 0.28329048 84
nan nan nan 0
4.0010805 1.2148584 0.17233044 38
1.9207289 -0.24571031 0.11843416 34
nan nan nan 0
2.6598825 -3.9007041 0.28711155 84
nan nan nan 0
3.9912355 1.1959096 0.16953121 38
1.9148879 -0.25209975 0.11779182 35
nan nan nan 0
2.9055262 -4.294672 0.31895712 53
3.2495236 2.7773178 0.052227676 1
3.9860661 1.1784565 0.16767372 38
1.9090055 -0.25844693 0.11748745 36
nan nan nan 0
2.8701415 -4.2760558 0.32130259 59
3.2749581 2.7783494 0.049473755 1
3.9903867 1.1638473 0.16694824 38
1.9080249 -0.26543924 0.11782368 38
nan nan nan 0
2.8377297 -4.2614384 0.32300895 59
nan nan nan 0
3.9946811 1.14923 0.16549729 38
1.907019 -0.2724278 0.11815989 91
nan nan nan 0
2.813684 -4.2590833 0.32651916 59
nan nan nan 0
4.0037284 1.1359605 0.16424349 38
1.910925 -0.28013641 0.11880309 96
nan nan nan 0
2.7924275 -4.2607813 0.33032656 59
nan nan nan 0
4.0127044 1.1226323 0.16371343 37
1.919735 -0.28861922 0.11975589 96
nan nan nan 0
2.7684753 -4.2581954 0.33378837 59
7.7937098 6.4155049 0.091618054 17
4.0264792 1.1105894 0.16264804 37
1.9235966 -0.29641354 0.12006374 91
nan nan nan 0
2.7446105 -4.2555389 0.33634001 59
7.7978597 6.3711185 0.08436124 17
4.0401926 1.0984533 0.16230641 37
1.9274589 -0.30390024 0.12071216 87
nan nan nan 0
2.7207701 -4.2527142 0.33975175 59
7.7823792 6.3110471 0.075198546 17
4.0589414 1.0868307 0.16068736 37
1.9214263 -0.31017077 0.12006374 87
nan nan nan 0
2.6943452 -4.2456088 0.34191942 58
7.7520375 6.2372546 0.071200095 17
4.0725594 1.0744958 0.16106948 36
1.9202141 -0.31720075 0.12108281 87
nan nan nan 0
2.6679449 -4.2382646 0.34580725 56
7.7123804 6.1589165 0.062014632 18
4.0910587 1.0633539 0.15942946 34
1.9190595 -0.32424009 0.12074312 91
nan nan nan 0
2.6416976 -4.2308855 0.34791183 56
7.6879058 6.0933585 0.056501225 86
4.099823 1.0496051 0.15814066 30
1.9178373 -0.33126801 0.12108281 91
nan nan nan 0
2.61554 -4.2233701 0.34998834 56
3.4424849 2.7079957 0.021404633 21
1.2112521 0.30536944 0.046022654 34
1.9166312 -0.33829868 0.12074312 91
nan nan nan 0
2.5894732 -4.2157202 0.35203689 56
3.4371018 2.6824613 0.018263072 21
1.1881233 0.29491124 0.044888541 58
1.9153575 -0.34531748 0.12108281 91
nan nan nan 0
2.5504923 -4.1865878 0.35312119 56
3.4745877 2.6912832 0.016108479 16
1.1697958 0.28581446 0.043735322 58
1.9091504 -0.35142806 0.12111115 96
nan nan nan 0
2.5220761 -4.1743011 0.35558119 57
3.5280433 2.7120576 0.012426727 14
1.1514243 0.27685761 0.042389363 86
1.9029657 -0.35750556 0.12046187 96
nan nan nan 0
2.1401198 -3.5716343 0.30649617 44
3.5856686 2.7355053 0.0094457148 14
1.1427132 0.27033657 0.041826703 86
1.9016219 -0.36447391 0.12079981 96
nan nan nan 0
2.1218104 -3.5706961 0.30866185 44
3.6320329 2.7488782 0.0055649807 14
1.1339839 0.26388627 0.040861119 86
1.9051915 -0.37240264 0.12077234 96
nan nan nan 0
2.0934112 -3.5524888 0.30931735 43
3.6700706 2.7565687 0.0032044239 13
1.1252152 0.25750199 0.040107455 86
1.9135814 -0.38132942 0.12173383 96
nan nan nan 0
2.0701778 -3.5426843 0.31140211 43
3.7042034 2.7610281 -0.00080634205 12
1.1164212 0.25118694 0.039161041 90
1.9170822 -0.38933793 0.12170374 96
nan nan nan 0
2.0495718 -3.5371192 0.31312102 43
3.7384164 2.7652729 -0.003246312 12
1.1125048 0.24582164 0.038791176 92
1.9205567 -0.39702904 0.1226988 96
nan nan nan 0
2.0314896 -3.5357242 0.31591594 43
3.7610965 2.7597692 -0.0073277615 11
1.1085346 0.24068645 0.038027097 92
1.9044597 -0.40098545 0.12142248 97
nan nan nan 0
2.0110049 -3.5299602 0.31759366 43
nan nan nan 0
1.0996412 0.23453845 0.037495814 94
1.8834392 -0.40377435 0.12051333 98
nan nan nan 0
1.9881107 -3.5197046 0.3195627 43
7.380053 5.332458 -0.027015038 23
1.0907302 0.22846149 0.036579028 97
1.8868426 -0.41174319 0.12048846 98
nan nan nan 0
1.9677813 -3.513726 0.3211922 43
7.4167027 5.3157134 -0.036630001 23
1.086696 0.223462 0.035446845 97
1.8951256 -0.42083332 0.12009471 100
nan nan nan 0
1.9451578 -3.5033872 0.32100093 43
7.3383169 5.2189264 -0.044006556 23
1.0826271 0.21849255 0.034708887 97
1.9422485 -0.43877333 0.12318198 96
nan nan nan 0
1.9201794 -3.4884651 0.32178468 40
7.2445369 5.1522312 -0.057408713 28
1.082734 0.21831746 0.03239565 98
1.8888688 -0.42706081 0.11573035 100
nan nan nan 0
1.928189 -3.5015697 0.31810942 42
7.3028178 5.2340899 -0.058022194 27
1.077042 0.22128086 0.031865254 97
1.8759018 -0.41690806 0.1131586 98
nan nan nan 0
1.9460382 -3.5035319 0.3140066 43
7.2916999 5.2666821 -0.056516878 27
1.0811318 0.22625409 0.031431757 97
1.8726553 -0.4089897 0.11085747 98
nan nan nan 0
1.9687988 -3.5141044 0.3106479 43
7.2683206 5.290441 -0.053347416 24
1.0900772 0.23229966 0.031521682 94
1.8839597 -0.40422988 0.11042598 98
nan nan nan 0
1.9892089 -3.5202141 0.30686161 43
3.7655556 2.7620301 -0.026082065 12
1.1038716 0.23947227 0.031945739 92
1.8952543 -0.39939269 0.109984 97
nan nan nan 0
2.0096624 -3.5261726 0.30374667 43
3.7353032 2.7609532 -0.025942439 12
1.1030027 0.24352011 0.031354304 92
1.9016871 -0.39347434 0.10857283 96
nan nan nan 0
2.0302114 -3.5320721 0.29988909 43
3.7046344 2.7603436 -0.02419015 12
1.1069793 0.24865662 0.031493042 90
1.9079969 -0.38783959 0.10783248 96
nan nan nan 0
2.0508027 -3.5378201 0.29670817 43
3.6785054 2.7619002 -0.02247975 14
1.1109383 0.25382671 0.031432886 90
1.9143568 -0.38183138 0.1070869 96
nan nan nan 0
2.0714879 -3.5435066 0.29277921 43
3.6404552 2.7542536 -0.019918507 14
1.119732 0.26015779 0.03190925 86
1.9108621 -0.37385732 0.10647319 96
nan nan nan 0
2.0921898 -3.5489995 0.2902514 43
3.5905786 2.7372689 -0.018124323 14
1.1236351 0.26540899 0.032047983 86
1.9073707 -0.36592087 0.10518328 96
nan nan nan 0
2.1155326 -3.558717 0.28732169 44
3.5289795 2.7108181 -0.016310064 14
1.1323801 0.27186042 0.032122202 86
1.903864 -0.35801834 0.10356047 96
nan nan nan 0
2.1389744 -3.56831 0.28434989 44
3.4711084 2.687619 -0.014557763 16
1.1410875 0.27837816 0.03239793 79
1.9101268 -0.35195246 0.10281042 96
nan nan nan 0
2.5392761 -4.2011127 0.33035153 56
3.4454727 2.6880267 -0.01144062 21
1.1546079 0.28616431 0.033019133 58
1.9114215 -0.34495234 0.10247143 96
nan nan nan 0
2.5625951 -4.2048025 0.32706168 56
3.4513237 2.7129989 -0.0099605853 21
1.1632507 0.29283598 0.033087246 58
1.9127254 -0.33795357 0.10145442 91
nan nan nan 0
2.5886157 -4.2126751 0.32320952 56
nan nan nan 0
4.1062927 1.0497344 0.11838774 34
1.9139689 -0.33094382 0.10111542 91
nan nan nan 0
2.6146975 -4.2203636 0.32018173 56
7.7292314 6.1701641 -0.01208291 18
4.0976 1.0635273 0.11750928 36
1.9102973 -0.32310262 0.099841066 91
nan nan nan 0
2.6442804 -4.2317333 0.31656536 56
7.7455292 6.2297912 -0.0086742844 18
4.0840077 1.0759917 0.1172318 37
1.9163743 -0.31725371 0.099420346 91
nan nan nan 0
2.6705875 -4.2391801 0.31258509 56
7.7692628 6.2959166 -0.0017453292 17
4.0655322 1.0870748 0.1175501 37
1.9175413 -0.31023046 0.099081315 91
nan nan nan 0
2.6969547 -4.2464437 0.30944061 57
7.780992 6.3528094 0.0017531832 17
4.0518732 1.0993508 0.11727087 37
1.9236488 -0.30398774 0.098316327 91
nan nan nan 0
2.720747 -4.2494102 0.30507779 59
7.792407 6.4098706 0.0070441482 17
4.0333204 1.1102041 0.11831232 37
1.9297025 -0.29769921 0.098227635 91
nan nan nan 0
2.7472739 -4.2564054 0.30186403 59
3.3796182 2.8018296 0.005363395 2
4.0196161 1.122297 0.11730122 37
1.9160167 -0.28840217 0.096459456 96
nan nan nan 0
2.771193 -4.2591214 0.29743525 59
nan nan nan 0
4.0106273 1.1356492 0.11861578 38
1.9022547 -0.27920452 0.095378079 96
nan nan nan 0
2.7951396 -4.2616739 0.29386434 59
3.3092487 2.7846725 0.0098131048 1
4.0016336 1.1489618 0.11847354 39
1.8983706 -0.27153045 0.094126262 96
nan nan nan 0
2.8164148 -4.2599831 0.28909227 59
nan nan nan 0
3.9926169 1.1622298 0.11760555 39
1.9043319 -0.26526427 0.09370023 38
nan nan nan 0
2.5885477 -3.8842998 0.25933614 98
3.2697277 2.7926111 0.014259312 1
3.9880855 1.1775401 0.11905707 38
1.9102564 -0.25895581 0.09360715 36
nan nan nan 0
2.5917571 -3.8583956 0.2541706 84
3.2551851 2.8018782 0.016491575 1
3.9837027 1.1921371 0.12050859 38
1.9161601 -0.25260749 0.093512326 36
nan nan nan 0
2.631197 -3.8862615 0.25253218 84
3.2486641 2.8170598 0.018762227 1
3.9841096 1.2081867 0.11992681 38
1.9171213 -0.2455889 0.092500336 34
nan nan nan 0
2.6511996 -3.8850565 0.24814418 84
nan nan nan 0
3.9748769 1.2213131 0.11978284 38
1.9229968 -0.23918107 0.092062935 34
nan nan nan 0
2.7730954 -4.0318627 0.25302997 103
nan nan nan 0
3.9655614 1.2343756 0.12108862 37
